ply
format ascii 1.0
comment Exported by Aspose.3D 23.11.1
element vertex 786
property float x
property float y
property float z
end_header
-0.17239927500574115 0.813439486922835 -0.15355271159425754
-0.16871968170092788 0.8320324322459609 -0.1597993700323533
-0.16772140774026045 0.8259017513729279 -0.15898955154990094
-0.1688110919711442 0.8281887860298166 -0.15899827165357944
-0.15659394859772408 0.8333716452351456 -0.1641701590707576
-0.16169582906996854 0.8330470279340346 -0.16249380365682597
-0.15768384021682108 0.8274321110869151 -0.16303375194341235
-0.14470147880814502 0.8259317349976001 -0.16596912243803028
-0.14863738953772504 0.8286611289210113 -0.1651193012506587
-0.15359594178902927 0.8235004368591686 -0.16348540826274002
-0.14856879727277467 0.8342099642608983 -0.1658952862047573
-0.15223956999105445 0.8352543681756948 -0.16539337760431386
-0.15230983848995666 0.8339657063359944 -0.1651717500313145
-0.1335794582446711 0.8567857060783797 -0.16843188547902796
-0.12890291803943582 0.8589365877822613 -0.16914197991223406
-0.1267506353105764 0.8546744867257233 -0.16960186397086813
-0.12899420252260696 0.852744543593919 -0.16929447556536145
-0.14564742549569415 0.8545673625801972 -0.16623623858137293
-0.1469861260885144 0.8494786130650807 -0.16634373960865875
-0.14587552522889854 0.8574753770381768 -0.16600095175699572
-0.13680300542715984 0.8612647761072947 -0.16768187891452238
-0.13910709516168085 0.8589098885970914 -0.16730431353477976
-0.14110754744783713 0.8612036601854405 -0.1667886456842701
-0.11903359509711914 0.8551611041528349 -0.17083657030742255
-0.1166635070550152 0.860112903123692 -0.17122765908441306
-0.12304127489425463 0.8504988909032646 -0.17028059654221656
-0.12264623569283001 0.8527664132949553 -0.17028495856243156
-0.11553556051728892 0.8755502826358647 -0.17085619934731272
-0.12122528361153721 0.8732420489095591 -0.16961615745176634
-0.11869405417985403 0.8640236825334592 -0.17079757812627075
-0.1180192151379473 0.8665745511767333 -0.17085587788799528
-0.13375312223603103 0.8673593396477751 -0.16744484192368642
-0.13077193277393864 0.8707254769446567 -0.16748032980028607
-0.12641086886294386 0.8674592999856645 -0.16882542912877152
-0.12680413033917048 0.8721962011398794 -0.16828312159315087
-0.10631369378319425 0.8732833958816519 -0.17309722363592878
-0.10285171752806893 0.8740927078927541 -0.17393521946566742
-0.1107013805611582 0.8685312038747905 -0.17220383275561654
-0.11040820479232716 0.863544026778363 -0.1724141677717574
-0.10011313185442858 0.8883115999844011 -0.1721616242328322
-0.10318359253400812 0.8905060119016109 -0.170830472934952
-0.10272711253104015 0.8894616065641382 -0.17119277571918687
-0.1057768018640159 0.8773431822836311 -0.17307330315416242
-0.1032634105976939 0.881885142576236 -0.1727467443408553
-0.11614564602345831 0.8812450795548766 -0.1693054909038501
-0.11738815559507355 0.8812940415193999 -0.16896124768501417
-0.11188051699931983 0.8866173117540921 -0.16922355191226
-0.11298062514560087 0.8802441341760917 -0.17042708973200296
-0.11271202856732543 0.8813976516239104 -0.1702307791591564
-0.08897036980005418 0.8888646125102817 -0.17445227932202773
-0.0831787395582805 0.8915773085433228 -0.17504458762561587
-0.09158165919964203 0.8856898132176888 -0.17455144190577943
-0.09484369051420913 0.8791135299264251 -0.1751512415271209
-0.09448384251992514 0.8887163464339737 -0.1734287450681353
-0.09639121058784639 0.8827880708787711 -0.17416672711620404
-0.0796262028060915 0.8987189764586254 -0.17597706426182533
-0.08032685405624611 0.9039927834585848 -0.1761693503378287
-0.08018017463387121 0.9041420121080537 -0.17620664430553587
-0.08802857223658145 0.8997553622726326 -0.17445514058660752
-0.0889102805939527 0.8944146243477028 -0.17396745614295028
-0.08888193396479552 0.8951915087775919 -0.17401977159556492
-0.0997144173306273 0.89613055598295 -0.1714159438085116
-0.09901504194331659 0.896702945039032 -0.17158289227334084
-0.10187115558269212 0.8926511622513056 -0.17092983548513033
-0.09685004764749579 0.9003541231281007 -0.17210700936093906
-0.094580193964665 0.9031070033139057 -0.17278222602904822
-0.09039254843062611 0.9062267405868534 -0.17402817628263278
-0.09428488966105428 0.9037510693208359 -0.17287003483298288
-0.07443383128554562 0.8916232815737861 -0.1761726372962755
-0.07411957420092127 0.89051524012992 -0.17637772745263774
-0.07689152887638218 0.8850142798927556 -0.17687358071555195
-0.08576252428448608 0.8797143310864123 -0.17658989601977046
-0.08109231448031237 0.8845488795254384 -0.1764343355142539
-0.08143396053284169 0.8876527093853812 -0.1759257390917134
-0.067682962986045 0.9034124685564418 -0.17794049598758252
-0.07203582711432742 0.9062018686794491 -0.177858767329185
-0.08031623391615084 0.8923960302516878 -0.17537126091856406
-0.07467572014701426 0.8955873964155471 -0.17634715215940225
-0.0698796520436894 0.8974754688855238 -0.17711008252597132
-0.06359043156926243 0.8879287872023689 -0.17757520596349
-0.06544761796728756 0.8873152851773964 -0.17754196314891565
-0.07376253588584081 0.8816729507394835 -0.17766799567480224
-0.07179738076978276 0.8803474639817026 -0.17796705687277212
-0.06939957147977237 0.8836469839643807 -0.177737769419691
-0.05540236052736484 0.8988621630385567 -0.1783929849608104
-0.05865677446690013 0.8820663386274654 -0.17846845959077903
-0.06239834484554348 0.8781422092327921 -0.17878547464952396
-0.05483912925433511 0.8842967277289748 -0.17829841341303834
-0.06173965641694276 0.8688009019375054 -0.17899499507614708
-0.06419231400274211 0.8735662104937791 -0.1788342795178802
-0.06387957948670651 0.8729526129553464 -0.1788548557318728
-0.057620434703037425 0.8767224015713484 -0.17905892522758052
-0.05647112771222202 0.8771152533901859 -0.17910120427372606
-0.06792492270199114 0.8637682208189742 -0.1786424200688522
-0.06547520666379103 0.8554791260590056 -0.17743292485718268
-0.06285762710382212 0.8576362567110476 -0.17775780098639046
-0.05920833280080665 0.8649934451059325 -0.17900324505124132
-0.056318889829450346 0.8567382271626591 -0.17766296408195287
-0.059334352087351036 0.8586434552133618 -0.17792362896645653
-0.06611035860473433 0.8345015711765131 -0.17525810263863903
-0.06676530999910517 0.8352455833830595 -0.17527426360826537
-0.0667960836418514 0.833660652395971 -0.17522215220096038
-0.05401842166001896 0.8331988737229263 -0.17529485126127053
-0.054505814529830915 0.8325350328831704 -0.17529130135862803
-0.05404007306248125 0.8395918602254574 -0.17534438515093984
-0.06350298714152502 0.8171102718798106 -0.17649480949418203
-0.06972627148402859 0.8166029266205838 -0.17619041303972
-0.07000418067769293 0.8211331469043317 -0.17579021005765788
-0.0647437337317136 0.8218558937795252 -0.17602255542106207
-0.0559300385990458 0.8195634939766736 -0.17666208092277233
-0.06065366625334423 0.8247934099761409 -0.17584439683443834
-0.058378614938812606 0.8248413482866628 -0.17589054028720572
-0.05656485993871256 0.824034006085756 -0.17604185931362626
-0.07223448599069608 0.8151485184411832 -0.17616231042443523
-0.06942253984855443 0.8092429104961183 -0.17682312971108072
-0.06480626486124029 0.8070637641418553 -0.17736493515583496
-0.06349106388311415 0.8078367581312629 -0.17741859016175573
-0.057945702569996566 0.8125446013757097 -0.17729070806223357
-0.060779199620594575 0.8158183636594214 -0.17677817616972302
-0.06075388201748047 0.8090468205152654 -0.1775044376785047
-0.05479588349963843 0.8106736686776118 -0.17767118169638477
-0.0679608406026938 0.7917767180527387 -0.17806578540312856
-0.06444512037000132 0.7870523590871694 -0.1786061018842763
-0.0665259581593224 0.7889288849660393 -0.17834659382814855
-0.06870234427746591 0.7965259178458324 -0.17770581872317331
-0.06483720734385458 0.7929874237029505 -0.17819131800269616
-0.05859857098445831 0.7948443408483172 -0.17856482172753133
-0.06018088550452482 0.8013983502337216 -0.17814603318167047
-0.05467069359251916 0.7962055399392277 -0.1788253081359532
-0.05566322745486569 0.7959337987421347 -0.17875629453055233
-0.05755032438021887 0.8019541131271547 -0.1783362102057584
-0.07024621546034854 0.7810092132736559 -0.1785421581745549
-0.06513588068051838 0.7800748960964166 -0.17875972807108167
-0.07277198615909379 0.773438889724444 -0.17896229159982957
-0.07051689237998664 0.7751598728342823 -0.17891815592626667
-0.06527328907548154 0.7789487055228862 -0.17882951311777726
-0.055595644389439286 0.7835821842983377 -0.17926329816015307
-0.0582490498251225 0.7821210267487881 -0.17912818683720294
-0.061906499756278176 0.779745423287061 -0.17895016192351998
-0.06213885058401812 0.7787407300678525 -0.17895824538836236
-0.057890766682593305 0.7822003038672336 -0.17914911135406647
-0.06994695665320347 0.7591451121675679 -0.1802274651440748
-0.06749132623182971 0.7675152154718332 -0.17949815158152874
-0.0722878594955168 0.7580108381799515 -0.1803042814992611
-0.067205290611655 0.7665845181279732 -0.1795853758221065
-0.054239280561860594 0.7637077544009298 -0.1801327542711633
-0.059588101954616675 0.762685714109014 -0.18003287849059935
-0.06329272881754662 0.7714153902512705 -0.17938443591413672
-0.056735467110139104 0.7623431014023256 -0.18014062971116787
-0.06709211835645464 0.7515209349023764 -0.1804120684222929
-0.05985570842725313 0.7563839759411644 -0.1804420520699591
-0.06558676862419963 0.7510528340703967 -0.1804232189544325
-0.0641751168867609 0.751749145253231 -0.18042990594679
-0.059276962821280005 0.7478475388957752 -0.18051870550769253
-0.06858880938041051 0.7444915482301137 -0.1804410369029884
-0.05615280446532833 0.7507541033298469 -0.18052592308474838
-0.05484331695844172 0.7460449595516464 -0.18059166579589428
-0.06751497394251164 0.7197122498809093 -0.1800874947810799
-0.07057662547806934 0.7234101981116304 -0.18020132953678705
-0.07067830222468749 0.7256003637836144 -0.1802544245390647
-0.06447214623906303 0.7225533080839814 -0.1801297984804853
-0.05601955111871514 0.7249607858437003 -0.18025686795791365
-0.0620969105929292 0.7247750886238791 -0.1801975784468745
-0.05529562735816855 0.7215482047601768 -0.18009444046636902
-0.056878600886443795 0.72299814348164 -0.18015293328802875
-0.06673063125252068 0.7130937316300205 -0.1795245606150803
-0.07053525716192474 0.7103659256405105 -0.17919797846424754
-0.06902646691053584 0.7064824305215869 -0.17869842376072181
-0.07054694734360001 0.7138426502493556 -0.17963851608403517
-0.05969959107887999 0.7143263752427199 -0.17958637571151098
-0.055637960277142226 0.7119399095143858 -0.1792616303344577
-0.06228122265454502 0.7145346226697252 -0.17964277802901393
-0.06028372752150229 0.7139010488192343 -0.1795449801510434
-0.06951465364754776 0.6930742853801031 -0.177251488607049
-0.06448607073392802 0.6967153506048696 -0.17770907281149076
-0.06428253303974947 0.6967739991964578 -0.17771797801840322
-0.07155703547348706 0.694509900913691 -0.1773814980337196
-0.058612410981210505 0.6977932760715411 -0.1778631255951947
-0.05740028861020785 0.6959405900990184 -0.17770259653739545
-0.05638124742334642 0.704143197060246 -0.17839671633491633
-0.057212347669449284 0.7040638370770985 -0.17839213676319607
-0.07079866464346012 0.6811121558623014 -0.17525961569653334
-0.0711854842291906 0.6832519215209132 -0.17561315019079646
-0.06630611944795743 0.6797518484870663 -0.17519924176479454
-0.06593657139122003 0.6851136841598502 -0.17613695386909933
-0.057170747865728795 0.6921491630429243 -0.17728838481526576
-0.05452411845042716 0.6861382645709871 -0.17653118805938256
-0.0604164674787203 0.6926838591331612 -0.17732191873305977
-0.06195915663847758 0.6874853974833713 -0.17662401527068275
-0.06829844931454057 0.6667250926752094 -0.17166178507521923
-0.06295498943059255 0.6728092062076662 -0.1736668044315337
-0.06469072549258743 0.6720350242416941 -0.17334710590843264
-0.06668627299271167 0.6697317100174635 -0.17258972267658396
-0.062089097355935936 0.6769437438867849 -0.17469906108169822
-0.055595748016266044 0.6772053703542474 -0.17498759407065845
-0.058318456635004644 0.6763249721697676 -0.17468401416033028
-0.05877410642062929 0.6722701427694427 -0.1737074332627066
-0.06969134948111037 0.663500107170083 -0.17060055474326963
-0.06510565652961106 0.6568176609221162 -0.16882132082772958
-0.06867494797008875 0.6533399681437223 -0.16747758313136202
-0.06296919067918694 0.6572935931742593 -0.16912081853239405
-0.05437388099011973 0.6663608490130296 -0.17239509595739103
-0.061457074356351754 0.6615297455912864 -0.170530638955658
-0.05765757955184446 0.6613862969605442 -0.17071468174748922
-0.060751061210525266 0.6613471839619103 -0.17051831626018157
-0.06541318688528497 0.642359502951699 -0.1643893557311729
-0.06649203203372256 0.6492996329281198 -0.16647633295672357
-0.0677670081729193 0.64191006947995 -0.1640141655514677
-0.06396683578001595 0.6442304672423653 -0.16512402681986668
-0.05759901367604718 0.6480780145215216 -0.16680886062733405
-0.054138414311978675 0.6462726192441082 -0.1665550815033096
-0.05894746639338557 0.6523145510691405 -0.16790155219072836
-0.054794689870380546 0.64751656214103 -0.16685680785204782
-0.0663763517365971 0.629862235742388 -0.15975908704139222
-0.0633522335649755 0.6289474442351333 -0.15966717511538134
-0.06258317921795256 0.6262748190598963 -0.15873843143492197
-0.06654350359498384 0.6352570258369711 -0.16174717014502454
-0.06018067362844071 0.6358032115569234 -0.1625360573159411
-0.0592858079069157 0.6338342601346822 -0.16185862454419442
-0.05593765022868204 0.6320934513269839 -0.16149765369765157
-0.0605467735421677 0.6341791178902522 -0.16187450914057366
-0.06945598996282915 0.6151130601607635 -0.152911999416543
-0.06722407114027834 0.6180499287685397 -0.15443478633043983
-0.06571862730106398 0.6196029167215866 -0.15525798913805416
-0.06745104187425394 0.6148145171838892 -0.15288050404432793
-0.05795467108284828 0.6259906753537323 -0.1589467266583176
-0.058594831792506324 0.6259126090401339 -0.15886180535743455
-0.05469660313362281 0.6192115941296595 -0.15579687194171354
-0.05575086674387988 0.6161022890728042 -0.15416919786036015
-0.06844650198717181 0.6040638342545347 -0.1474022231150065
-0.061294666575487246 0.6009268620258825 -0.14615202204584216
-0.06710340013744429 0.6099651880141823 -0.15049407435046902
-0.06160684615668061 0.6009241058278854 -0.14613499883038275
-0.0602163771201429 0.6098229456823494 -0.1507807149855501
-0.05844758046329357 0.6097879055964149 -0.150855337693863
-0.05509180810865281 0.6035326707970284 -0.1478061110798779
-0.05624642274085108 0.6089328825362998 -0.1505298499229537
-0.06563989333394188 0.5856977171430826 -0.13731474883723976
-0.06800215324402892 0.5937907908112827 -0.14186662783568266
-0.06744717847999913 0.5937320842079051 -0.14185806727860745
-0.06075562441676097 0.5940843605958684 -0.1423628065298287
-0.05826469001404346 0.5974540362639321 -0.14440789265562431
-0.0568691656430394 0.5946603622391955 -0.14286560880644253
-0.06322913058135594 0.5796842044484242 -0.13343020358935476
-0.06311193340533959 0.5766040051808841 -0.13120624529269306
-0.0656252202728145 0.5781881498780108 -0.13204939022565665
-0.05516233861312156 0.5817451069300483 -0.13525790014928368
-0.058833956456355085 0.5791664405604647 -0.13349970465359945
-0.05677280612798336 0.5825465143131839 -0.13569570403097708
-0.08633392824331423 0.5482020245891603 -0.10220476968522962
-0.07574217299466565 0.5456120550185977 -0.10434310397408351
-0.09075205171624529 0.5457176246549591 -0.09778116856908022
-0.09176437621237209 0.5515913270207432 -0.10237624800898622
-0.10068914205430468 0.5483547817775565 -0.09335494550070411
-0.09882205513790258 0.5478463766593178 -0.09434591806092989
-0.09727078591794014 0.5417003679935233 -0.09003407592460631
-0.09175595471024138 0.5403921840810666 -0.09278906149848466
-0.10885634168280978 0.5484912664861157 -0.08460868561428572
-0.11001421184311214 0.5525334045336122 -0.08826082262331811
-0.11118379997663334 0.553202851073344 -0.08744141163664841
-0.10513809817782466 0.5415892337908255 -0.08101723197562355
-0.1112454048104809 0.5484434500439217 -0.08093538885439476
-0.09949334373599183 0.5404354089476904 -0.08721028682899416
-0.11386820860095764 0.5450224143002618 -0.07296281775058189
-0.12004585873968675 0.5488080986254176 -0.06899674746943156
-0.12166679156753983 0.5502520847561162 -0.06865025806256266
-0.11288848835502349 0.5471284847658897 -0.07738893932246958
-0.11565717704307849 0.55067855577498 -0.07787773198473184
-0.10240312271875628 0.5330744891886233 -0.07335664795321925
-0.10747351970702297 0.535027614333719 -0.06696628382745891
-0.10815893034558127 0.536228575172108 -0.06777118247775063
-0.09501274045321276 0.5255884039295013 -0.07293839175238204
-0.09629976689125816 0.5267883564094802 -0.07287031373799603
-0.09765732749406364 0.526322213456075 -0.06936178932362123
-0.09445537231496738 0.5226649280181824 -0.06774302543490586
-0.09837705516159333 0.5230690659710997 -0.06278548439142173
-0.09529636933747465 0.5222980396199788 -0.06577661127114859
-0.11512797902436853 0.531453027825173 -0.05288540923726642
-0.11185894560769705 0.5300352887249071 -0.05522047507985747
-0.10170956176679419 0.5248900449069367 -0.060903871134142126
-0.10660367495172522 0.5295786265590108 -0.06071278566160897
-0.10326607279630823 0.5276066209707243 -0.06224182276791951
-0.10655249853195099 0.5226876991509202 -0.051471965224612476
-0.10877757412331024 0.5240215051215876 -0.05038907453550026
-0.09953666417514101 0.5195344856469435 -0.05641008296272246
-0.1002006267127722 0.5216424996373066 -0.058569137908730404
-0.12364123919269536 0.5344483891008021 -0.04801953192348615
-0.12183133788351565 0.5341707303251821 -0.049248214152506964
-0.11910700430451478 0.5312610651465429 -0.04815045198708584
-0.1141230657650519 0.5279163489103502 -0.04941775849117913
-0.10973427691746224 0.520404996855191 -0.04480358782161592
-0.1142055859025804 0.5219838969576356 -0.04197228125895017
-0.11167385788830106 0.5247075936732588 -0.04806316680071973
-0.11193492089717921 0.5243794748388494 -0.04736668412251674
-0.10425775655114317 0.5163341851075636 -0.04574526112040592
-0.10096701122991245 0.5130306395908852 -0.045325992085769484
-0.10079852372406418 0.5105348593514389 -0.042910301384993826
-0.12931334462220806 0.5229778697510061 -0.02745469435933018
-0.13125064050645519 0.529512532074681 -0.032831234077252275
-0.13113676752633227 0.5300579823974734 -0.033889951175504585
-0.12182920418068599 0.5172840967801619 -0.029350043680628463
-0.11792859514612063 0.5160221871023851 -0.03197386365098151
-0.1204410840633064 0.5176997430491526 -0.03118790736324467
-0.1159845250904958 0.5105572676640748 -0.028701450748564616
-0.10907838763600011 0.5064242171948219 -0.030760738163772894
-0.10976071289893685 0.49855009649349635 -0.02286790101424746
-0.11418622506518658 0.5000339010056094 -0.020304733132200797
-0.13120421936541274 0.5052878795427946 0.008188385646597934
-0.12763282490028 0.4986167934596462 0.005676720866751278
-0.12142078450336266 0.4904579034914956 0.002335322212553892
-0.1211548463929669 0.4921478846747478 -0.0016848538727716744
-0.11552398875085992 0.4809587112353393 0.000535197866408349
-0.12177810536931857 0.4885673685680661 0.00568017618538344
-0.11382061455726591 0.47225775766599576 0.007885782663052399
-0.11800422850602309 0.47720002582852555 0.011707895391013246
-0.11494770100944471 0.4671415239816613 0.023733931287510668
-0.11745207566192944 0.4739057766302294 0.029922199214773376
-0.1052161348334232 0.45000078906918584 0.04243708640359878
-0.1068433851623864 0.4563203501900597 0.044967345478121784
-0.0999348933781816 0.442746571372412 0.04977194588161368
-0.09873664760119923 0.4473182444782296 0.05501846258464321
-0.09168415700896057 0.4363040866582514 0.060038994667804324
-0.091234928606232 0.4402146062776945 0.06256212922387303
-0.08156357646626622 0.42955694701183844 0.06878076528993768
-0.08083538892357825 0.43358809768600876 0.07118075797770496
-0.07463646450464076 0.4236296800302112 0.07301434597028716
-0.07215039522503687 0.42474034798339255 0.07543064540860367
-0.06187338849244339 0.43312648929613323 0.0848234200534293
-0.06029378207237402 0.4349630277253235 0.08766272881538278
-0.07349549356833132 0.41367826563964744 0.07094780975609893
-0.07194175397771442 0.42134999569949716 0.074641235913469
-0.0862668796724066 0.4142470507438823 0.05383983968935607
-0.08532815008809325 0.4216699979633339 0.060864455491313696
-0.09203152388236674 0.42867775302842304 0.05408573728817992
-0.09062049778763925 0.4268595763149285 0.055511981988027426
-0.09771176797318276 0.43531567140916694 0.04769585529730566
-0.09708447510293884 0.4391605802777399 0.05296666158275107
-0.105621225074471 0.44694589148093056 0.03467915227787924
-0.10146639295121158 0.43887966976374365 0.039821872648874435
-0.10446611932784391 0.4451041849449442 0.026797496388216796
-0.10254519642833834 0.44114349248953566 0.030526354447224457
-0.10568778165632928 0.4468698014924345 0.03027108170857118
-0.10912389490333502 0.4539648934159024 0.03458009253389158
-0.10453821427133336 0.4478588952065924 0.020456436082351592
-0.1074435033202017 0.4506112064088975 0.025201810281417686
-0.10958938068199693 0.460038146134933 0.014995343775935643
-0.10826344441346318 0.45759077685726707 0.01558528954470817
-0.09985255923655177 0.45449917485312796 0.0064153999226723435
-0.10785253492535571 0.46007638005751317 0.010545810368092018
-0.10994147897363213 0.4662758183011697 0.006996703638917634
-0.11159423369368385 0.4674394360519044 0.00868691778024383
-0.10340789478305654 0.4668318654115754 -0.0003748527974166693
-0.09853138662628534 0.4622690477638327 -0.000541372564724002
-0.1043107043484225 0.46523520671750807 0.0021190503673825245
-0.11337834348729492 0.47558881998904246 0.0025175586330479505
-0.10725344416226841 0.47344358676665976 -0.003375738623719038
-0.09288703558400224 0.48155106900579847 -0.020855836225910335
-0.09820656826971072 0.4816502270456926 -0.017052276996881555
-0.09682993762270112 0.4922761998173264 -0.027705084673842112
-0.09825502741483122 0.49133474055414317 -0.02572114255973959
-0.10731114814733532 0.5030405259343739 -0.02899915205382897
-0.10265854236590785 0.49915281428547437 -0.029174614625186113
-0.098637796525366 0.5071526978593066 -0.04122520704231597
-0.0918390902103278 0.5008173927714263 -0.04108816886247388
-0.07563425321009423 0.4934227344155819 -0.04858873818393958
-0.06857236961217403 0.4918649298859487 -0.05200769642239095
-0.0664789912422759 0.48680527144523145 -0.04934569472228606
-0.06491700394188901 0.47992377448438983 -0.04677360124503724
-0.059799092408749595 0.38099265445127134 -0.007103436849785205
-0.05977007916965642 0.3735398657811766 -0.006827852814488833
-0.0597382280987559 0.3695688807745477 -0.005363039560012994
-0.059470516628681025 0.3722263798607257 -0.007896626896462422
-0.060414447772586144 0.3867526141890359 -0.009432201440554289
-0.05965162011007463 0.38573876903682963 -0.010903496864548279
-0.06173912052851343 0.38609901995300094 -0.0018726305469828342
-0.06172039420879131 0.38759741616458177 -0.004239416109110494
-0.06073844690019297 0.3764791295483084 -1.4970362671617998E-05
-0.06079860588981867 0.38025196215999646 -0.0017713541751628314
-0.0626072547339995 0.38296040286855415 0.009644832292223765
-0.06353383467622496 0.389077242082727 0.006226660738775203
-0.06152146589477186 0.3764627154091091 0.014077192833139962
-0.06132274568275553 0.3758305659683732 0.013353357345057076
-0.059735882155309956 0.36813799089246313 0.01662369768931002
-0.06045319923930911 0.3695297458963333 0.019972929740627754
-0.063376714678729 0.37530957938760906 0.026200771502136233
-0.06180355441431622 0.37243833679503285 0.023773696550018625
-0.06083312694397027 0.367571309802693 0.02667046261929995
-0.06095601481541972 0.3685071883062153 0.02571402466872333
-0.06859515272065357 0.38010573040507484 0.035890979885775026
-0.06596347565138413 0.3748061585201645 0.035582909061171786
-0.0691237306533121 0.3779061537128155 0.04077539243847997
-0.06989859698381148 0.380095278788544 0.03929363520767326
-0.06381627271086288 0.36619997057070913 0.05118254641855163
-0.06680579478187285 0.37125720620378966 0.04946342801337464
-0.06218063732481567 0.3643884274213044 0.060579465393375886
-0.06079442921791174 0.3601421681471223 0.05953433323447485
-0.06192175492749097 0.3660657956085995 0.06487290450914884
-0.06259037424078866 0.36656577953450714 0.06167856723714174
-0.05727254475442337 0.3755805756697583 0.07724058365544823
-0.057659254621721785 0.37359337091906036 0.07662858535533412
-0.07284440140697629 0.39045017966038126 0.06167791060309688
-0.0719837335084815 0.3956057846240039 0.06578514167218089
-0.07689237461004725 0.3975420276254622 0.059239781110637935
-0.07636157317091638 0.4036787175485659 0.06388392520866579
-0.07834879498096138 0.3966105697134915 0.054418893477809094
-0.07921721927708103 0.40472854679463943 0.06007975628647369
-0.08259073129701928 0.40619433982757175 0.054181334685126176
-0.08544182255602167 0.4136938775793904 0.05497168231598423
-0.08241143140829242 0.4030211114773579 0.049998140362448484
-0.08625758113493188 0.4111385478926598 0.04946348385887442
-0.08879660464171737 0.4150101878735357 0.04570261484253135
-0.08969789200824235 0.41710989447434854 0.046243012975356546
-0.08628334149794559 0.41054512113217795 0.039416374637538054
-0.08921366224454663 0.4153669662833388 0.04148270734768983
-0.09297514666554849 0.4245570571349547 0.03313048489016954
-0.09183575935723912 0.421157834552586 0.03695712988876307
-0.08966917129001298 0.42294631531872084 0.027755180341278024
-0.09336391653474688 0.4254117523532309 0.03160061238820838
-0.09469472609195707 0.4280732029245409 0.03041954014433393
-0.09730615407229043 0.4319683993525752 0.0296137847968789
-0.08682073929671902 0.43080633818247865 0.016957749868457522
-0.08933745725549752 0.43304596640819826 0.017008265695167335
-0.09467488086403233 0.4417027340542514 0.013216672976039345
-0.09474770492995113 0.4377259488112166 0.017681752567659914
-0.08469740113489313 0.4377489970312453 0.009718197917124749
-0.08944377897750985 0.4422306811910768 0.008808246787445045
-0.08731380686677556 0.44678883560719873 0.003882874387471341
-0.08804381952947452 0.44547176687322887 0.005331644257583146
-0.09815875227865667 0.45691946945024187 0.002845810018887035
-0.09394009922361557 0.45223742052395943 0.0034982378569907713
-0.09001953690288406 0.4642681180170962 -0.008636482147320712
-0.09094338149021776 0.4682242787930697 -0.01120294993314272
-0.0782514525321341 0.46072523118628717 -0.016162616161448595
-0.08824639564279482 0.4681540448025039 -0.013173048072594562
-0.08061582146666105 0.47125924436388505 -0.023507552753499333
-0.08293562483706532 0.4737827042661982 -0.023176255346584185
-0.07693684516456277 0.47762069023108755 -0.03409326902052265
-0.07850062508171407 0.47912275230977697 -0.03360496773260585
-0.09118633021946712 0.4807360512580943 -0.02163166579525158
-0.08566674045402076 0.47899288958546793 -0.025327445991776498
-0.07833000129999586 0.4876339272936927 -0.04097478501494459
-0.0709303187007302 0.48336432738336244 -0.04463963836031429
-0.06963007554111028 0.46184581211090814 -0.02930541636808187
-0.06852842012064843 0.4572175051647432 -0.026181397731806416
-0.08211519403879447 0.46760764309505143 -0.01844879728634613
-0.07956469921211615 0.46694903347298566 -0.020877783652218096
-0.06630959540372469 0.45187778889274133 -0.02416488944539813
-0.06897081847793812 0.45585393260952856 -0.024096628320658897
-0.07040498854605352 0.4498300828416616 -0.016432980026048455
-0.07519966634658298 0.4558825255347403 -0.015303936328667361
-0.07084544662385607 0.44775191602414954 -0.013811628257058284
-0.06984496186123984 0.4424862465014195 -0.010629317654521797
-0.07153510819745243 0.4346137826034696 -0.0007737272205579071
-0.07380046212230067 0.4411524967330948 -0.003599736088063299
-0.08351113163816848 0.44123678816194173 0.006130019097995348
-0.08114524822922743 0.43580248979192565 0.008979937176635061
-0.08167710638331754 0.4352754839576044 0.009872730133666657
-0.07630291380522364 0.42850231416800816 0.01065753827645638
-0.07518534450074642 0.4208296909520924 0.013641370127376734
-0.07899552737940684 0.4235755246111875 0.016105410402071696
-0.07509701114682947 0.411990392631441 0.019764142562937348
-0.07823687871275845 0.4163525746365788 0.019942561227282385
-0.07628898398283579 0.4040614338229682 0.0272421441037064
-0.0825279520393193 0.40979865936524856 0.03081473293913367
-0.07268177763145053 0.3928657759750762 0.031469633632738386
-0.07866213854907797 0.3997969237024235 0.03571734282370695
-0.07337983668280937 0.3850160257123944 0.04323247941500635
-0.07571925337904994 0.3887040448227648 0.04727343223073796
-0.07298546210382008 0.3881133393674808 0.03715339490180525
-0.07072787238500686 0.38297970340550014 0.03755822123101493
-0.07519409336582834 0.4002361128168983 0.028916403888383818
-0.07155362566627829 0.3923945840632635 0.029561542413544528
-0.07334868268241787 0.38585288973718285 0.041328202733790564
-0.07318443242590382 0.3866872788880136 0.03949064972512123
-0.06578718571083357 0.38451288333309713 0.023510890587706085
-0.06716422016217018 0.38501918336301433 0.026749293658331147
-0.07029003319969135 0.39516009271927843 0.024184454335153344
-0.07130475048889476 0.39618657453734907 0.025372369499383624
-0.06830732957047612 0.39805092720542057 0.014710244900821345
-0.0675243166283801 0.39362655518335776 0.01783725959669144
-0.07097059292088768 0.40683159085118287 0.015630449174157846
-0.07096052799747256 0.40415986451539393 0.017721867064650287
-0.07770099408914456 0.40715626400224014 0.026419329498701488
-0.07263600185033607 0.40209179222380725 0.02256667221870476
-0.06857770170962606 0.40386685839535585 0.010496111615820897
-0.06925149500946481 0.4048803174538421 0.012147933812387629
-0.06901318222972881 0.4102126484706954 0.00850761123566754
-0.07091907637622508 0.4130525910455557 0.010886797631483702
-0.06760537394408414 0.41284389433816443 0.0036350111332850987
-0.0690376209128554 0.4122973119777589 0.006984878610211243
-0.07031632229544078 0.4217269985147738 0.005170466516168426
-0.06912804222904362 0.41896541221693656 0.004186794427412904
-0.07411192231844214 0.4213305732209051 0.011737883170922864
-0.07320135830710099 0.42643516313269403 0.007904550517803866
-0.0647761452037254 0.4194482122278447 -0.0070744347928303475
-0.0641855987218945 0.42071481181948556 -0.009111047506004055
-0.06608316640587417 0.42743307085564686 -0.0070613384078970776
-0.06497960650682855 0.4290898618262501 -0.010286274407034557
-0.07248132498644266 0.4271321558763365 0.006085278282369738
-0.0727170177024663 0.4306701348511596 0.0032408811979586227
-0.0618986250788643 0.4281619858655585 -0.01624047580428012
-0.06231493424850498 0.42441458061607074 -0.01443386888380166
-0.0628254054350141 0.43529741795950366 -0.017219340130179644
-0.06464096225165858 0.4380598840321338 -0.01594043138217449
-0.06650682360375712 0.4336261283988409 -0.009223386865555544
-0.06721028981772753 0.4372201265995961 -0.010998291715953318
-0.06189493729980788 0.42169967413413695 -0.014935597957509927
-0.0626104091581583 0.4203744929138994 -0.012959188460936771
-0.06185981662145757 0.413447927224274 -0.013589119741943628
-0.06220343589112053 0.4127418175984015 -0.012595368811810892
-0.06418280283925405 0.4117608273745351 -0.006428188760013165
-0.063758274484197 0.4133888334053327 -0.008183695122690238
-0.06111099407197129 0.40120075680489753 -0.013803387314414328
-0.06177471553028474 0.40135017004674195 -0.012269792957155828
-0.0640553192278368 0.40165799736554136 -0.004600537175242669
-0.063552180957874 0.4074595416946121 -0.007637693672234436
-0.06331808269271358 0.39449560465654876 -0.003351093776187475
-0.06273485354532941 0.393607104805077 -0.0059280994228577966
-0.06537781820229555 0.3939453510271453 0.007941918263762754
-0.06539073681833457 0.39507852820136913 0.006615724928997091
-0.0670537382859228 0.3954066351775001 0.013458657962535647
-0.06772440794761535 0.3989343622284522 0.011029743427009603
-0.06488217849930436 0.3892846952888307 0.013150844090515618
-0.0632557519500547 0.3840198873588537 0.013308976380928123
-0.0637199407102832 0.44339828403369547 -0.020626276408624078
-0.0645412728041822 0.44238609168893706 -0.018850279396699893
-0.07727519351318374 0.4475062590297715 0.0791929314973705
-0.07729115408053516 0.45271076591814885 0.08169139592504276
-0.06253663282776327 0.44257336698770844 0.08770946699457954
-0.06060412352683321 0.4398937192585396 0.0890314086937517
-0.10396741239871368 0.47149401323432627 0.061787553194640465
-0.10146402656010184 0.4753841473376119 0.06849676644078265
-0.11215700835191257 0.48457609348600494 0.057205069100966094
-0.10741668020529963 0.4805315540205309 0.06290733406474014
-0.11523898878618874 0.48316267414736336 0.049874426420575324
-0.11165744253245544 0.48177594890595155 0.056190923035637885
-0.11767980325904527 0.4911256823884244 0.05388881750367114
-0.11435656822536219 0.48658862962842864 0.054875777691308664
-0.11966717783281042 0.486402392454459 0.043178624185671144
-0.11773227532318388 0.48484571861513104 0.045809159699175594
-0.122773429305361 0.49350101983321576 0.04595836483724364
-0.12555576791089273 0.49799351884115695 0.046365394256459275
-0.12721500875911196 0.4948169011471063 0.028899734002180405
-0.1273580133876322 0.49571968772349495 0.03338474202618602
-0.12914981697582356 0.4983851165138198 0.030358724453878577
-0.1313934845588543 0.505151235580637 0.037823998892259764
-0.1309146836734854 0.501659630871367 0.02307858946845745
-0.1328192584379334 0.5059036392129057 0.02778847239963758
-0.13408147975865325 0.5102020965083887 0.010820344748593669
-0.1352401477328098 0.5119245229860899 0.014200657729935617
-0.1336792013751037 0.5087032315675826 0.015241874166455033
-0.13150667658697257 0.5085328858598016 0.0008236779133067307
-0.13493821504003475 0.5121976682960321 0.009636837602610082
-0.1342140190132745 0.512311351027471 0.005043404623803177
-0.13926020022505683 0.5220899351662178 0.005821059586509664
-0.1381380861691504 0.5205015384500656 0.0031268477554795004
-0.1384154163666665 0.5191269271032827 0.011005941640098105
-0.13336963607524066 0.5240104110863575 -0.02187721232401668
-0.1392287269859791 0.529620876560541 -0.01815369078017323
-0.13723536157646687 0.535659628183565 -0.03472010739335113
-0.13940690805039133 0.537476398973309 -0.03469361518246436
-0.14380137091217415 0.5382955719515543 -0.02477491794301298
-0.15180242289112672 0.5520765264506005 -0.030706349197425542
-0.1528135068282881 0.5534423921076445 -0.03024042213459005
-0.15402223180164848 0.5533445200132965 -0.021560899022621982
-0.15280232252021603 0.5525084667162515 -0.02486164438707794
-0.15701137527557324 0.5607748610763245 -0.029902212017309693
-0.15731575429218564 0.5615043800846605 -0.03164671530437735
-0.15780617786683082 0.5615840402320241 -0.023546379888263663
-0.15694792637017813 0.5586612616848061 -0.019887440782787813
-0.1596485779431399 0.5656598516517128 -0.030194544229860593
-0.1614298601904151 0.5695572183141397 -0.023223464037832375
-0.16257090295125776 0.5729378795158411 -0.024448359529356284
-0.16217869070888757 0.5710786596857149 -0.016331446712822828
-0.1654790668234955 0.5801635679890053 -0.017494252841714214
-0.1657316916254088 0.5810181117497211 -0.019330110561673386
-0.16501858993871252 0.579423194708417 -0.021580216377853234
-0.16458532967999914 0.5780651442548974 -0.019085352623493507
-0.1494442612048332 0.5599878938559192 -0.05135848779930491
-0.14912597760777158 0.5601589299916243 -0.05259056588411351
-0.14435570638833364 0.5570137238886429 -0.056267642552721
-0.15059566515277362 0.5575401202886072 -0.046680702724495676
-0.1515404269247143 0.5591671666011254 -0.04690994466797485
-0.1594744111980434 0.5725823502849161 -0.047853516205605046
-0.15972027627736934 0.5733694808529899 -0.04814358881728886
-0.1583103573577206 0.5716518396829908 -0.04987477699942666
-0.15997126252514382 0.5750261273258706 -0.04947540930020253
-0.14987580152317728 0.5621404375905794 -0.05520733535423131
-0.15297742635765493 0.5660155889898262 -0.055293763824370845
-0.1524377641844084 0.5627555100500863 -0.05101650503802488
-0.14901280876742445 0.5705688422621136 -0.06559731106070016
-0.14809100693277277 0.5742537815301767 -0.06997661041695875
-0.1496514097840245 0.5750551007931396 -0.06922019519876606
-0.153764546448365 0.5744195661082002 -0.06462780687604439
-0.15383925887579275 0.5770880547323181 -0.06707885167797047
-0.14684455920104886 0.5752579087525459 -0.07286804183982856
-0.14517995176685322 0.576126725660104 -0.07665122721306715
-0.1426669436233724 0.5744058168946004 -0.07743757989676822
-0.14368295965137304 0.572513873034307 -0.07291706495721025
-0.1580482571587885 0.5882497436493475 -0.07426993113489212
-0.15310551947408962 0.5805733652142485 -0.07227742469808855
-0.15077877556572605 0.5806076779859092 -0.07530984680723678
-0.15455425754539343 0.5828350808768112 -0.07287421002744285
-0.15278371628463266 0.5816339991968144 -0.07384605943409445
-0.14880652849541823 0.5859477998983073 -0.08375690895633173
-0.14745967458998696 0.5867641111851494 -0.08643453838540346
-0.14817132232712432 0.5874803964467179 -0.08630032203254163
-0.14948342137129894 0.5835097117723356 -0.0801483991064964
-0.16501473736902159 0.5865073974013609 -0.05742538723495173
-0.1628305908642731 0.5876042291424854 -0.063660659538145
-0.1651909725621284 0.586371625556494 -0.056860181007983485
-0.16637023957900982 0.5929111341759641 -0.06402781473326964
-0.1631671627354408 0.5925733907869529 -0.07003321828380668
-0.16590120929468366 0.5952482519023569 -0.06844602932362234
-0.1683093833886627 0.5928144069564246 -0.05676152759442475
-0.16717405777783345 0.5912771568539608 -0.058676300202971765
-0.1706153534330916 0.5991552068701268 -0.06139279471564167
-0.16924717681171653 0.5951033648508929 -0.05753370753815072
-0.17155791888960453 0.5960015081548583 -0.04881299817790913
-0.17158489834871754 0.5961176990350515 -0.048977551581494944
-0.1724961203585746 0.6005386258942685 -0.05611926808881655
-0.1733514974837339 0.6011331357403712 -0.052619600032129954
-0.17071745965611632 0.5934417556732162 -0.04305266269538227
-0.17140615799936304 0.5948319006806602 -0.045933352880378975
-0.172161806556699 0.5958622689006257 -0.04022722006162782
-0.17149334517620357 0.5946478205670974 -0.03996559141178471
-0.17811563085905424 0.6085880800044847 -0.042257064759741086
-0.1766406192749178 0.6060527317615819 -0.04629521796298905
-0.17444243059160242 0.5997255554060531 -0.03274959298369551
-0.17698208337467713 0.6048406573222613 -0.03487090333371046
-0.17944679000872746 0.6103370540211793 -0.032953430752188595
-0.1792408059884422 0.6101802044966012 -0.037429807275319416
-0.1767954563884167 0.6045728777749955 -0.024020422572681832
-0.17912775968416908 0.6097224782819529 -0.027764616833910655
-0.1830573688594934 0.6189271651386428 -0.02459261941147939
-0.18228167666233525 0.6170029194722001 -0.03363630188374861
-0.18122651944847215 0.6154046053180069 -0.018701852773503502
-0.18125952040768312 0.614729595191138 -0.026020312999469053
-0.18723451515053086 0.6313800561455866 -0.02605353840329941
-0.18536620898644607 0.6255377107737995 -0.027275955985238964
-0.18320097384770348 0.6215934303015973 -0.012263981222024323
-0.18458231904097214 0.6245113307129081 -0.016458083024258913
-0.1888905898827271 0.6393224116900487 -0.02009582515187036
-0.18813954140440017 0.63733783933272 -0.013049735975761895
-0.18698797221221858 0.6310083849962206 -0.023289611684415457
-0.18653675769914158 0.6337093635882759 -0.005170290364401087
-0.18602792127764542 0.6325565700238011 -0.004078514521416748
-0.18829014323948143 0.6382281657199369 -0.01141385733111161
-0.18748373758043346 0.6353098414884412 -0.011462739978001096
-0.18985036860489057 0.6435328538730171 -0.015569849264103874
-0.18984481097339476 0.644244888511658 -0.01088672861386622
-0.18965475383193078 0.6419674361472408 -0.02191493315817586
-0.1881346275407395 0.6400486171379037 -0.0025174402814714114
-0.1890305458990413 0.6434695898063187 -0.0022000352931113576
-0.18876040670295788 0.6409586341653891 -0.007776991241956133
-0.18960325127537947 0.6445067323166932 -0.006303014000241441
-0.19264783763101248 0.6544944716362461 -0.014587598826796
-0.1919666322721078 0.6523876855563921 -0.01009055052746305
-0.1915412425952558 0.6496489865972292 -0.018779434852076532
-0.1908374603828642 0.6510212320238694 0.0007810372036171909
-0.19003856915479184 0.6472770568479496 -0.0020486569970756263
-0.1921746795566899 0.6538031014204901 -0.00665871559404313
-0.1924330826316156 0.654930959570554 -0.005933188209379908
-0.19485528637411847 0.6646923924772883 -0.013033400170350984
-0.19416983875233454 0.6613279692958971 -0.013807688122030287
-0.19351367202669173 0.6575742852494999 -0.019066727708443032
-0.1934525210267179 0.6577946480266668 -0.01357118058027626
-0.19368396678443148 0.6613778942920537 -0.0009556017394191374
-0.19327144352197484 0.6595527156504971 -0.0013629925330330694
-0.19523534955001715 0.6677785222860085 -0.003560485379485334
-0.19442091180870866 0.6641681414027351 -0.002271694091119131
-0.19584477988290647 0.6699031511029973 -0.010449108634112553
-0.1954778378853008 0.6678529565336676 -0.012221395737067237
-0.19617028909207085 0.6711688221891418 -0.015162581897399913
-0.19575385877589144 0.6687688529753039 -0.018266026175520672
-0.19802711464759543 0.682636868706891 -0.010576014224010888
-0.1978876534003076 0.6814996456415487 -0.011988665905034418
-0.19768275012658323 0.6792033792634085 -0.017397283777007194
-0.197864292612691 0.6799029996607777 -0.01947241618822007
-0.19684628100693494 0.6756773189432056 -0.03417136788718514
-0.1979608995063645 0.6807665463171482 -0.03488087071299609
-0.19762945875832733 0.6793078299593727 -0.026730971523883845
-0.19726111658961853 0.6769458368821857 -0.026320625736240943
-0.1991781667797184 0.6867535268763355 -0.03209348842405357
-0.1998467656240418 0.6895239927825385 -0.032324090258597865
-0.19935796949127904 0.6885324850080509 -0.02440977285161447
-0.19886223489722601 0.6855769925843904 -0.023074749442052123
-0.2030576486578366 0.7012411872318236 -0.03280175916791983
-0.2008869941617334 0.6926382858343895 -0.03567188860871187
-0.20168232823451368 0.6960312098335947 -0.03396916171656372
-0.20144870420943944 0.6977394632590911 -0.025945728922101424
-0.20052116713023901 0.6942706287364953 -0.02214012408565616
-0.2005546040654223 0.6941409778840969 -0.02371175339418935
-0.20427687965345334 0.7073172602495021 -0.031589782621439966
-0.20464132976448998 0.7088954484524937 -0.031873241745194625
-0.20550040421703208 0.7101180808309896 -0.03859183661352941
-0.20401864636099928 0.7075682182656868 -0.028018312941356205
-0.2041190776606119 0.7099288498368835 -0.02338021569918025
-0.20414807067233984 0.7079640801862438 -0.02853764583952828
-0.20856703513448988 0.7361074260338344 -0.04085156437939244
-0.20862445004854344 0.7398681061251074 -0.05438132366540571
-0.208636603820279 0.7378460111919374 -0.044381967013214396
-0.20843264041737125 0.7295591979852982 -0.03984242486731421
-0.2085589468654555 0.7328734380520842 -0.047892589188552354
-0.20860140550140088 0.7300669932679568 -0.047663545720203815
-0.20852882721811516 0.7294088245405959 -0.04397078099751703
-0.2061171775392734 0.7319185950584433 -0.0676430055950327
-0.20619094527718937 0.7380373873490675 -0.06941667967967757
-0.20664846607115453 0.7298087488473068 -0.06370698236896136
-0.20712113998283094 0.7389304490547759 -0.06418526628302347
-0.20756641588692853 0.7250740411415154 -0.054837489741926454
-0.20781886516267734 0.7344093992128787 -0.05835158207434292
-0.20843190826582916 0.7289280600178809 -0.05061503361933911
-0.20841259264211423 0.7381911870184082 -0.05611265249344888
-0.2033738664714341 0.7487486440216936 -0.08110003553794932
-0.20292635317898072 0.7476182955386854 -0.08231992787472414
-0.20390964914090054 0.7520570235826104 -0.07992386468162414
-0.20221618824257448 0.7478075635263903 -0.0845441956721386
-0.20222846788613372 0.7400944702932454 -0.08447623723553922
-0.2042429258703003 0.7416032964325184 -0.07744837948698707
-0.204069467393167 0.7422624613074716 -0.07802954094009182
-0.20233578396961288 0.7437932804212166 -0.08399185833163116
-0.207012159211025 0.7417075916943139 -0.06469078360111456
-0.20827225157038776 0.742260102675962 -0.05735147605782674
-0.20722975945654584 0.7405314738323738 -0.06358085478177099
-0.20712990710300844 0.7477104543699183 -0.06326796792802772
-0.20460586041969397 0.7515199839244174 -0.0764136295093153
-0.20448509476967466 0.7535870126954146 -0.07673140352026596
-0.20526469933007024 0.7474305605540182 -0.07355629492308237
-0.20528532199037586 0.7426846993253189 -0.07418884590183236
-0.19479841834973996 0.7521322437697063 -0.10539961841447462
-0.19613219604058962 0.749543022019971 -0.10182150742191026
-0.19487816254406204 0.7444472930061389 -0.10408018454514865
-0.19821348898786623 0.7409488729341916 -0.09560221373525866
-0.19838321600433934 0.7425172308234496 -0.0954232096583314
-0.19982748575286205 0.7392769550449125 -0.09151711087372945
-0.19064070220251542 0.7641501018957692 -0.11614783844071874
-0.19200952013556027 0.7650426518363171 -0.11375372683437525
-0.19156999491503177 0.7673485403297241 -0.11502338381598579
-0.19102665263718865 0.7578105236982258 -0.11421786111358972
-0.18824126894337034 0.7556260310324637 -0.11907664623005951
-0.1883828904164253 0.7606690594170399 -0.11975243927852781
-0.18863636997606673 0.7594916591747919 -0.11905276817859053
-0.19714420698771912 0.7645055202002868 -0.10126224014505067
-0.1959058893708398 0.7609175749383305 -0.10382418395109762
-0.19590898648048885 0.7611430604832279 -0.10384274726958946
-0.19656385519308162 0.766822190398252 -0.1029240480358526
-0.19441793314364744 0.7629875591414645 -0.10775699672448129
-0.19338842416470065 0.765623851719166 -0.11073513073743049
-0.19375763507536797 0.7673496625876229 -0.11005361455734251
-0.19398172517560605 0.7602296975423111 -0.10845815954492949
-0.18076564701206746 0.7633043185149757 -0.13246149208350624
-0.18340956613436937 0.7654524258617671 -0.12891063883385906
-0.18158586339522687 0.7716839464002372 -0.13288190853823503
-0.18533161796312675 0.7604964672385978 -0.12489006849126827
-0.1848446765879182 0.756034596676545 -0.12470270900927977
-0.18433803797394394 0.7608174944111472 -0.12650934216097845
-0.1834840748755615 0.7877649182753641 -0.1350816842203422
-0.1820344197675871 0.7895329464474901 -0.1376988902839175
-0.18682274268258986 0.7886620657995103 -0.13082745790742106
-0.1810369689674689 0.7801809933789138 -0.13611278767533674
-0.1840100678294912 0.7779859510303917 -0.13096888055280065
-0.18023873833652937 0.7746891008188196 -0.13556983171140002
-0.19023363749234534 0.7797360398931507 -0.12125936564801383
-0.1915409340255801 0.7790281889630887 -0.11861015074967735
-0.19122233936670135 0.7780699312219165 -0.11882616222291603
-0.18946376500391596 0.7848798842185835 -0.12461392628062601
-0.18928601717575722 0.784792942232472 -0.12490439934483488
-0.18908971664193455 0.7897015043756007 -0.12712449878840879
-0.18879533130376228 0.7881712540348672 -0.12707947519101465
-0.17532004976892246 0.7842802101400488 -0.14442169774346844
-0.17433396081369107 0.7907563156090274 -0.14744449643203936
-0.1764699069519486 0.7829614908237587 -0.14271387280175363
-0.17713858449948403 0.7769078432937784 -0.1400717160470422
-0.17900077791050198 0.7879715022824416 -0.14125619193945685
-0.17837176372894248 0.7788103809530937 -0.13918289295531977
-0.17776905008159063 0.8030527456081232 -0.14624151666998803
-0.1816287696179434 0.8003176198508808 -0.142325040309014
-0.182980888678083 0.8042326265080607 -0.1423970510174794
-0.1765811100283853 0.7941113506587338 -0.14544024660304014
-0.1740183353484347 0.7996085445013766 -0.14906462910323143
-0.18295227098415254 0.8012143412736176 -0.1413830633022269
-0.18339658851792806 0.8004664008507641 -0.14044675031920906
-0.16112405220596054 0.8046651592801586 -0.15802466122726733
-0.16536396748381543 0.7978844295809182 -0.15542765848982754
-0.16163551077650318 0.804986566358377 -0.157754556502444
