ply
format ascii 1.0
comment Exported by Aspose.3D 23.11.1
element vertex 766
property float x
property float y
property float z
end_header
0.029323177010693056 -0.030431238346539637 0.007267668077628029
0.026433358887985547 -0.027906636623111908 -0.003786552574383416
0.025460194555533736 -0.027810279577633577 -0.005140673108527255
0.019115247297797896 -0.026308188182841336 -0.011084310461320308
0.02238521140907452 -0.02755371128175857 -0.011601973956466552
0.015183016766739051 -0.02084077819319826 -0.021472030752150238
0.015407277264586855 -0.020232913273045213 -0.024556359750273413
0.013676961025472431 -0.021232029204964538 -0.03312822257292304
0.012285515773857027 -0.02186376981492458 -0.03391477860128283
0.03502908063540727 -0.035031218462444044 0.028385118475004075
0.037135594774056896 -0.03533845204359311 0.030379213543806478
0.038446938608271135 -0.03635288566382165 0.029391112019943006
0.03850079343157156 -0.03561952924088996 0.03141951682921741
0.006676194358596465 -0.025135064509559588 -0.06220023066789397
0.011564399256447158 -0.026688540364256295 -0.062595177659724
0.016469629158561223 -0.02972239529367195 -0.05729860248511838
0.016976698596166573 -0.029543730559009315 -0.054827807129929323
0.023984305321982112 -0.033590875648176616 -0.053885918843715574
0.02604044724236383 -0.034618648769448326 -0.052334137883663354
0.030270145414937374 -0.035833213514556386 -0.046492297307747676
0.029437577061803243 -0.03498662293258131 -0.04503279490030679
0.032765312982953855 -0.03462532460621457 -0.03877264178753492
0.031291973407428744 -0.03469324404162348 -0.03990822746788611
0.030886406548930587 -0.02971833988779922 -0.027148316320775807
0.029059096191459518 -0.02904842985223774 -0.029904636201010734
0.028876760703698524 -0.028512376224523593 -0.024215528525723475
0.028957436140536454 -0.02849823249580022 -0.02630791931953247
0.025661643095402656 -0.026957109041747883 -0.02176807469485377
0.02584734480408486 -0.02675469255889585 -0.024070644645263588
0.01696093570321739 -0.02317235643242003 -0.01766826783724224
0.016109641316842664 -0.022070580917635967 -0.019184604452623478
0.003364440850412754 -0.015431039061611355 -0.01776601516259822
0.0018887709181748284 -0.01576769836553267 -0.019563705862697095
0.009441809597165188 -0.020885883778512627 -0.034050764624456525
0.008918907481751363 -0.022239858138278137 -0.03490782683599308
0.01150993978715853 -0.02253585906620784 -0.03452044939539086
0.012096057558564027 -0.023531662157204165 -0.03488799314770606
0.016066934516630153 -0.025358354783349163 -0.034931052381906885
0.01727492782511656 -0.027011349994632047 -0.03542539732547918
0.01918770674440303 -0.027885326670328586 -0.03544259069596427
0.018144842798209382 -0.027732521748502655 -0.0355448532206985
0.02170192338575324 -0.03141209535755291 -0.03626015105228207
0.02185455050864232 -0.031222144312649257 -0.03640090765122078
0.01894957458391458 -0.02877345845070079 -0.036390073834050476
0.020515703391390118 -0.030139572863609264 -0.03678477410181902
0.01764071204823397 -0.02734566122713226 -0.03652894380443293
0.015688402586832392 -0.02625776033453377 -0.03567964153439795
0.012013695955810283 -0.023698178368676513 -0.03561525039947061
0.01217508695781309 -0.02284539948810487 -0.0366331216767972
0.006885763088708016 -0.021002206146418022 -0.03619532527661962
0.005959954686556978 -0.021389813108262424 -0.03553560480440678
0.024719788667295177 -0.033993440741816594 0.02769039908658775
0.02427387760997861 -0.034048183880174915 0.027779249178227803
0.018607745262150525 -0.03560905929385813 0.03039594159321455
0.018516571502398035 -0.035100448826970804 0.030158436348117088
0.020394575206612007 -0.03348489955678618 0.03543714983904857
0.020194465382874074 -0.03427263764632016 0.03423880107234116
0.022453176622257515 -0.03273113483638784 0.03629935914311409
0.022218623862078193 -0.03314612076566663 0.03579511722115264
0.02730801075944608 -0.031286045404891376 0.03787008365617498
0.0276363580338172 -0.03142351669981369 0.03740115675328106
0.036723512156873986 -0.03167925703042581 0.037061684269091746
0.036988138992477826 -0.03153029879073897 0.037350348196859985
0.04045024987514252 -0.03275568854056854 0.036684602428074746
0.03832110935968478 -0.03255295192781345 0.0364364235830544
0.04569599082437774 -0.039762655359999635 0.03339996073683889
0.04667233820400894 -0.042122555340851985 0.032191217625787444
0.044156907321180175 -0.039660131422876964 0.029652002310515
0.044911417554165556 -0.03987286486384607 0.02898543861744062
0.038355031350576566 -0.035527684395290623 0.02678461260969435
0.03909105153857631 -0.035815180909098555 0.026331221586357804
0.03595235169040738 -0.034426074027964874 0.02586480535031214
0.03552775893585111 -0.034415807250102425 0.026803732625616004
0.026618868201582407 -0.03385100389686217 0.026603829889868147
0.028630030344061287 -0.0338397465790866 0.02641591085067529
0.01190237753061105 -0.024138085000980157 -0.03508135896188892
0.010529461568799692 -0.02431728576357268 -0.03492172995531252
0.015219806008050509 -0.026039917983734385 -0.035356992490323313
0.01678797727380909 -0.027606274978694927 -0.03545129051021103
0.01835032294397211 -0.028549193269454244 -0.0357060028719037
0.01788702274362931 -0.02855087272871013 -0.0355550610570322
0.019180343241178465 -0.029479859704210035 -0.03578495741231552
0.019556646293674484 -0.029993544244647584 -0.03580454396902681
0.020353346339242212 -0.030909548318548016 -0.03596124086976411
0.021153861401472747 -0.03129183400025778 -0.03610091927009142
0.01854002182054217 -0.029207280898410057 -0.03583763755981712
0.019482076675663533 -0.029524464180107526 -0.03598838962027749
0.01595474887403338 -0.026671846869364576 -0.03562112823465383
0.016202800347070806 -0.027172311335020967 -0.03567220486956828
0.011358510888098066 -0.024000889814593404 -0.035281750023069144
0.012003111187973002 -0.02475460064165986 -0.03540010565431971
0.0040217539286285 -0.021710998370055447 -0.03528172242285828
0.005690596085147135 -0.022526629586130636 -0.03520159231988651
0.014497193780771486 -0.022551373392580565 -0.015804579041719707
0.01136544227231039 -0.01913087335128496 -0.01828941820382155
0.010182350744181033 -0.019228857716754075 -0.03273939063356703
0.009733794937326758 -0.020247599896324117 -0.033583634937565325
0.008740606892860244 -0.023007873816213706 -0.034927398992213324
0.008673908206228209 -0.023385456602203432 -0.03488397303424022
0.0031199086072364953 -0.015106915759254026 -0.027458469125674796
0.0017227585039994704 -0.01484943290919791 -0.028211940984157923
0.0015083870540349065 -0.016580129085580646 -0.03253757439577158
0.0022978940800965396 -0.018453099116746422 -0.03387876778495055
8.435845041191604E-05 -0.018638164385284782 -0.034250663323080216
0.003054277198754466 -0.019747025125551744 -0.03452290436879836
0.0020682804643592343 -0.02222950971666382 -0.034952067904734055
0.001905718366430328 -0.02133193222683677 -0.035100978777756926
0.012030090803102597 -0.018378426494044434 -0.023461312722454896
0.008964605661098156 -0.016771512695416452 -0.02322669550996291
0.007658201457286669 -0.021376273235762862 -0.03594668858268452
0.010263890047595692 -0.022294182628676606 -0.03604707753598858
0.01492783362610296 -0.028868972476540748 -0.06694638662532587
0.014823023112030506 -0.029406459106087125 -0.07093281070238013
0.017219909844487645 -0.030199902829089208 -0.06496828233248209
0.018892948067218134 -0.042366393415385936 -0.07886079812235519
0.01855794723274561 -0.04138693945523336 -0.07851435810098023
0.017710573194314315 -0.036042405496426025 -0.07655585371021553
0.016479647918021128 -0.03741295906706227 -0.07789471527682455
0.01373849478642865 -0.028054970785742886 -0.06158340920743527
0.015538009910888682 -0.02908555766439149 -0.05946572040433892
0.011660405538593592 -0.026842536750870158 -0.05345984160311212
0.012013389280247082 -0.02647114994697499 -0.05216693082928048
0.009556770395912942 -0.020299884796342565 -0.03881922115486105
0.009755605424265863 -0.021078202362635183 -0.03743456989865798
0.007247474624961102 -0.022669561743672656 -0.03517085893176125
0.009956477345564574 -0.023221790722139216 -0.03521732879331095
0.03968483890716541 -0.03240705022805044 -0.003766716635436261
0.04004383945727108 -0.03251638632505908 -0.006391005783443127
0.029152966216607838 -0.028772905084615705 2.6454568323524066E-05
0.026064889190998298 -0.028251644044029817 0.0027205023386886835
0.02056249946634091 -0.026224522974252377 0.005777318050466773
0.020480796889121737 -0.026049333985000166 0.0033038545561837095
0.011105747594665547 -0.014997557631601547 0.011000195259444026
0.012230342937579804 -0.018510410698358206 0.013415213941658347
0.009197025315347412 -0.013073429841402393 0.013665623188080256
0.010089833407909846 -0.013986706688751425 0.012445129154378756
0.0015480767777936455 -0.006236892259308737 0.01484755256010662
0.0008903650743279936 -0.008056934593494753 0.01803432694465192
0.011508855735300999 -0.042019483051352065 -0.08165476329685674
0.01110578214473701 -0.04794576303237525 -0.08219785708205364
0.01964236774160882 -0.0434973443253813 -0.07896521381003166
0.020722858131704797 -0.045528929858483516 -0.07887834686535233
0.022282708367130307 -0.049964231982251826 -0.07854807095989412
0.024810271849830055 -0.05233013161088883 -0.07731215563316837
0.025256739474354396 -0.051121572671031686 -0.07667450732175805
0.023631019765480522 -0.046754140433428855 -0.07687169321503372
0.02212641112538891 -0.04718727819319629 -0.07811789693151175
0.035105296965417025 -0.05252104834201327 -0.06789169261719613
0.03595803681136667 -0.05262536975526054 -0.0667820689946525
0.03510452840822465 -0.04870892194699018 -0.06454657768443817
0.04277935642365884 -0.05026038172410662 -0.052289779368549553
0.043395634474321536 -0.052467039397214886 -0.05414273094267903
0.04384931601899393 -0.049462115879503644 -0.0492381484018945
0.04830670993897979 -0.047676417232132194 -0.03482284682013148
0.04502661920981304 -0.04577458836117444 -0.04039615616635579
0.04313751650527328 -0.034755935490946216 -0.01018905170379699
0.04309773064078297 -0.034682153133975796 -0.00987876854683012
0.042607405417103686 -0.03478013608552833 -0.013415855721606612
0.020023946667451387 -0.030430963384381227 -0.035873170730875696
0.02019408237036078 -0.030362630705012262 -0.035913311595301235
0.020338839360722897 -0.030099880552447215 -0.035905997035579076
0.021501644611451612 -0.029878789970705942 -0.03580516076081798
0.021754998104589172 -0.03008398761773405 -0.03582310927470653
0.022979985739571794 -0.030841567399879605 -0.035800050504728544
0.026556825016534533 -0.030287185259972437 -0.03406322779494145
0.027073335124161158 -0.030471143995896524 -0.03415980461537839
0.030462736063881293 -0.030893117257273246 -0.03300463415944273
0.028535473986688233 -0.030675516418329316 -0.033718567711121375
0.03344609418507441 -0.032232598792826944 -0.03215758937906138
0.03214307253135179 -0.03156673045016573 -0.03251200133464368
0.035455474741562125 -0.03287975434367556 -0.02874283549859625
0.03645685658832689 -0.034127556390380086 -0.03101796573674278
0.044267468230899026 -0.03915120413497127 -0.025159302537372814
0.042632126559852615 -0.03869954811023471 -0.028605055554754222
0.04923022477975724 -0.044511174136710505 -0.02505909821593792
0.04560576561827225 -0.03959701604459648 -0.022653357511610128
0.05345178738385796 -0.04662434781686134 -0.017103215519597335
0.053550082975313544 -0.04614538981571362 -0.015760515387858044
0.05162174401280199 -0.047024001055041585 -0.023568548793183774
0.05162239226852105 -0.04709785850130155 -0.023750388378751493
0.05651048624372061 -0.04940705056538362 -0.0133631142866177
0.05657116381725884 -0.049870116620970566 -0.014093813340804158
0.0571643202283802 -0.05328015702568224 -0.019035512359512494
0.05527404741849808 -0.05009625069182642 -0.01862820186627055
0.055702562962558475 -0.051028737345025756 -0.019179526800175588
0.06545370851359447 -0.0654612402591592 -0.006823087449352562
0.0661475162283362 -0.0671380284157815 -0.005980150702404579
0.06542612046264477 -0.06532269453539365 -0.0067580072910479235
0.06279108743672257 -0.0643288249409799 -0.01700644744036498
0.06356231570079998 -0.06178498576908455 -0.01033121479004154
0.06320900261004105 -0.0602604057758684 -0.009812585529765864
0.07033782694133904 -0.08636055786590363 -0.0030850182082053645
0.06923753355898227 -0.08367357850181517 -0.007088815615313502
0.06969553693614546 -0.08439196802903814 -0.005018726936346241
0.0698670534788586 -0.08467966919847461 -0.00426233674792105
0.06760004527029904 -0.07862750437909434 -0.01194733129104832
0.06768899806542203 -0.07849617798228953 -0.01127540964345668
0.0679289429828273 -0.08054610487475984 -0.011883156531293161
0.06865482001195654 -0.08261307291243893 -0.009559677302006322
0.07110635669266155 -0.09193131158684757 -0.002421377472356428
0.07216337403123256 -0.09883763467923004 -0.0003369160417624848
0.0715222465322907 -0.09591909747188812 -0.0024614007644336265
0.07057699271309224 -0.09008374721450717 -0.004556158275045545
0.07032142069728535 -0.09454424159771345 -0.00834299969421623
0.07135511182826115 -0.09935282607067639 -0.004671704477286914
0.06989408990520934 -0.09417305287342909 -0.01040105416436809
0.07079687957408787 -0.09514276939748559 -0.006115166171500962
0.02008896725634597 -0.030581967463316293 -0.03595586404677381
0.020224744548735293 -0.03056718596652308 -0.03599657948994007
0.020339647498132014 -0.03030087658148289 -0.03610434381112532
0.02088420652338522 -0.030600381192628964 -0.036433213953941515
0.022738368041147598 -0.03143957723306022 -0.037430357462651484
0.021121811158602025 -0.03041410969676282 -0.03714749385009678
0.02584914377576017 -0.03267422054072254 -0.04001083582355276
0.026230280806432874 -0.03291821153004198 -0.038995668521843024
0.028381846446993767 -0.033838872384182275 -0.04097642435103804
0.028302082909318835 -0.033821640129970174 -0.039425249144676586
0.03274018697031858 -0.0360680847283512 -0.04282129411777569
0.0310185018681814 -0.0348198836376537 -0.040684068078812995
0.03632105135597677 -0.038053758512752806 -0.042856400701085706
0.03409318000401071 -0.03680340564591806 -0.04282722917391016
0.04228181654054122 -0.0462518767150267 -0.0475809294446804
0.04122686686609948 -0.041858558695472795 -0.04208558165212534
0.04504625912394522 -0.04896874625614115 -0.04578321410230565
0.04452117021123176 -0.047348225948651554 -0.0443677886542548
0.049175219033751084 -0.05418199484716365 -0.04423201743169773
0.048572486609944204 -0.05441439175783183 -0.0460675977518296
0.04765098439190196 -0.05251302682989557 -0.04532464949297305
0.04849826403686438 -0.051285184982757095 -0.04130721438188781
0.05300719249207403 -0.0602982756455789 -0.043783767619024916
0.05180822143477498 -0.05874970461541019 -0.04455666779634838
0.05355214173644787 -0.0579533641580473 -0.03901010867036868
0.05204125605481391 -0.056869195808796555 -0.04122885478716375
0.05917652590244004 -0.07265377953569427 -0.041908840993302554
0.059826112061526826 -0.07121136105668795 -0.03863150212527518
0.05661274381677642 -0.06709307859410271 -0.04316222096050548
0.057097668698649864 -0.06995107638180163 -0.04478658597466712
0.06522313967082274 -0.08615500530700952 -0.032124288251858805
0.06396281148463584 -0.08792863875339521 -0.03680769861858909
0.06486566306199831 -0.08852531811779338 -0.03416276897386232
0.06385546862285837 -0.08201789641528356 -0.03489334331798953
0.06346087083076785 -0.08290273221834568 -0.03645388845810099
0.06312449826937062 -0.08394736388373841 -0.03790527881171435
0.064394053146146 -0.09453727180782932 -0.036082253675562184
0.06570978882805201 -0.09561951593094849 -0.0319809717158307
0.06430722317991068 -0.09378597957146706 -0.036324956825211537
0.06478501833421571 -0.09148592675628946 -0.03470799102087338
0.0643575851904104 -0.08944902804058508 -0.03588671420069239
0.06435512188216796 -0.08933281545485998 -0.0358865381779318
0.01765179189264409 -0.028012983585585172 -0.03578635181521753
0.01828131061293058 -0.028812414129893448 -0.03583508233091829
0.018172670645824954 -0.02804367260389387 -0.036299935527793155
0.018774544859628997 -0.028560196622162665 -0.036478397296681425
0.019545939190007505 -0.02805039682280401 -0.03834625957519899
0.019324131593600517 -0.028419511588847 -0.037514908391633725
0.021227380347973453 -0.02863865346981732 -0.04246033145888196
0.023292003827248352 -0.030536484570832297 -0.042414034159091354
0.024591856853670938 -0.032101786187115185 -0.046950024409743205
0.024587703034107015 -0.031824887953265185 -0.04544449895117847
0.027936983086568626 -0.03518357332091574 -0.049802527726485815
0.026364366088774037 -0.03354201860381001 -0.047706053070712684
0.03020429387801348 -0.038260055051085096 -0.05371902091950463
0.028951535984707722 -0.0362591799228943 -0.05087176386648901
0.0356173931658176 -0.04602162483678434 -0.059457496048157615
0.036398531901505576 -0.044773573422437 -0.05587609012747297
0.0389379582968521 -0.05053203356191624 -0.05987921562087008
0.03892938724368295 -0.04894782954545687 -0.057791061434668806
0.041716600081635746 -0.057256852332918176 -0.06220260676631521
0.041515068298425654 -0.0542868478271152 -0.05968657870598918
0.04584521093110954 -0.06307160637772076 -0.060191335040241066
0.04469646100805197 -0.06148455587253712 -0.060897199948316
0.04493611846510213 -0.05885783779373177 -0.058357479524828226
0.04911610026938112 -0.07138345189341697 -0.05880511609887629
0.046040608260843004 -0.07256128268035814 -0.06286261547363522
0.04887499103998489 -0.0729458219000491 -0.05943971124410071
0.04949734202898447 -0.07472523933373525 -0.05918620874122836
0.05377077624294374 -0.08166060401617975 -0.0549405258792451
0.05734549243878258 -0.08433050146420722 -0.05131927112936408
0.05855029241987268 -0.08799221310404037 -0.04977575705458528
0.045532853936552625 -0.03830955624764697 0.08482628754147503
0.045159487408558796 -0.037455870530701214 0.08285018524562274
0.04823677304412825 -0.03996648601027711 0.08071524299103178
0.04417073253624491 -0.034945350257093666 0.07682687543408334
0.041956543965308984 -0.02881184039602607 0.060032999881268714
0.04063381739060514 -0.027000017342892972 0.05694215106644645
0.041257692370526414 -0.02691896523036002 0.05497628271523834
0.04024962143331573 -0.02610344385084632 0.05246078531568464
0.03904571209161156 -0.028484683933250765 0.04374404567673289
0.034637859752324 -0.027677744384116517 0.043631574032774324
0.03778197052481161 -0.02929024038240721 0.04146553754927707
0.03462055102675586 -0.028595113942154592 0.04188134032269224
0.03370165520653096 -0.030701880611916844 0.037887898233583316
0.03418437756944443 -0.03082053160898201 0.037749330551827574
0.03397193892668832 -0.031677054613922076 0.03700685550543796
0.03367631830910786 -0.03261193932023703 0.03672000968108563
0.03267491294147561 -0.0331770305964112 0.03479089963974677
0.03371766215204047 -0.03343759909352185 0.0332695709271576
0.03416341265069556 -0.03431165794178827 0.030164325237138145
0.03286313499506323 -0.034143809793596394 0.029805027113451836
0.03282082062735515 -0.034160321856070555 0.027243986016126064
0.03400293224482982 -0.034870250894272786 0.027662829518195382
0.0349053028910336 -0.034210398243996916 0.026029078648732114
0.03268389260355957 -0.0338068974730105 0.02665020131763588
0.03622297341361938 -0.035630804773820766 0.02133322695277086
0.03372936214494939 -0.034758457343936074 0.022344635699285572
0.03488145477538805 -0.03497065680514301 0.01790498166282705
0.03274012135824426 -0.03486526407544058 0.020543262954533983
0.038538448913988284 -0.0336995059987978 0.008001452064015905
0.034708018399993774 -0.03359028401128956 0.012005074007209187
0.03303584731862416 -0.030300526344840373 0.00191830450800882
0.03731190897131083 -0.03251992601441954 0.004942034812062429
0.034608789487861176 -0.030210442756650458 -0.0029069896237695187
0.03385707269281553 -0.03009856368086973 -0.0015202140609663801
0.028469143891162004 -0.028344499881411047 -0.00476350692979755
0.030944423324002136 -0.029045591123081665 -0.007990046655828063
0.021603526123502796 -0.026038961059726206 -0.016531813622360544
0.026766167486194453 -0.028261010899898104 -0.01598192236589384
0.020148419467650426 -0.025100816866919902 -0.01740286471065955
0.02132916483177607 -0.024337565424151962 -0.022436781910091488
0.01913006410954629 -0.022685997521898357 -0.02408174209636554
0.020664468692044937 -0.023475505830535426 -0.025177276829114546
0.016849771936311576 -0.020740629134585454 -0.027985672177207203
0.017758444429755164 -0.02145102288497301 -0.029984553965675505
0.015857559287421212 -0.024420352651702965 -0.03453473962506281
0.014406154848828713 -0.023242238739324836 -0.03419020072712256
0.014007466745535137 -0.023551132450029766 -0.03445630228918138
0.015093500633039944 -0.02473101722096973 -0.03483982013388255
0.014491816192560368 -0.025958561271273373 -0.03520098078799569
0.013698335720245208 -0.02515686934809641 -0.03519068136439488
0.031415736133412746 -0.033487530740977184 0.015114179102516813
0.028218113829308715 -0.033097342115990934 0.01655188335026323
0.022645228810092694 -0.031279279069959226 0.016728095882700477
0.020828607830518917 -0.03200044308154542 0.019719620818872775
0.011249853027078023 -0.02777429973556538 0.029037355984493952
0.012688371495943209 -0.027682078631529883 0.024715796054904163
0.009044331539414542 -0.023058297598771225 0.028647003490267824
0.00784095945429402 -0.02207661939615916 0.03252757284227808
0.004334794056312613 -0.016989195431354815 0.030100610941572677
0.000209003141862718 -0.0179999172486497 0.03468768368441146
0.004295637852786441 -0.01718526191592112 0.0501634021034143
0.0023165032882492423 -0.0177281595060209 0.04756263906384661
0.015334289407185547 -0.01963979492523296 0.04870904287141986
0.015727870479515984 -0.021839268673415235 0.044805497823784075
0.010776534791309769 -0.018850503384360916 0.0476764638692782
0.017178041073507448 -0.019894295064004835 0.048811016367352245
0.020739250227383828 -0.020546566998294487 0.049121576115382905
0.03081964428547024 -0.024290066857771006 0.047607577254976545
0.026727267480875387 -0.022929925876356238 0.0478286534566678
0.036762474293521474 -0.026274903170240494 0.04703511176329256
0.04040832263534782 -0.02659705865009542 0.048945189762539226
0.044611724190275544 -0.029267666666251947 0.047359266309989496
0.04178545858061039 -0.028313694661229533 0.04631722909763832
0.0486768196265376 -0.03376821171712105 0.042632919182128096
0.047542328550975343 -0.032934059205995514 0.042737534584222595
0.05506616746980692 -0.04370232804277553 0.0372634251336043
0.05363130146580184 -0.045096834626064314 0.03385544618452184
0.05317460029020683 -0.04649243012797282 0.02298495805207418
0.051610036407454776 -0.04579933512970598 0.02483710209778356
0.04849428466772304 -0.03994619311528187 0.014495607623016361
0.045215552535175584 -0.03820141505212509 0.014870079819650122
0.0438747532194334 -0.03689500891934583 0.012782108914815377
0.04037102160141957 -0.036387660864779486 0.015773191966490394
0.03736933174772825 -0.0346692393280751 0.013327268019471122
0.03349870121156777 -0.034332987227115995 0.016624931779179047
0.04926670516543209 -0.07740663326590283 -0.05976950689910234
0.05219897434058711 -0.07750008857699983 -0.05637099703426664
0.053684585610159194 -0.07899159127872762 -0.05488110539329673
0.058948647684655936 -0.07930984703258327 -0.046396660651089175
0.05920045406349571 -0.07835854205949047 -0.045499257483116104
0.05390769942641193 -0.07464700143351322 -0.053986493551865807
0.05516925624611679 -0.07430699554800599 -0.05143192341302044
0.06261978713475774 -0.07701953656706409 -0.0354294765676706
0.06156926387921649 -0.0784008728039541 -0.03961735828375472
0.06282900415688866 -0.07934215825595556 -0.03651176099281321
0.060033616183047686 -0.07440548612491253 -0.04102685200501821
0.060186123019297995 -0.07399853607623828 -0.04028542353079406
0.06484014770829181 -0.07799809589059283 -0.02716642809174137
0.0648394615108782 -0.07590838868027347 -0.02460293446764687
0.06438771936201101 -0.07628106314357051 -0.027259728998449476
0.062260859956846624 -0.0739201049023211 -0.03404156995855837
0.062467905057592754 -0.07399032400246784 -0.03320650449126347
0.06382987095476716 -0.07588624055910503 -0.029434736277741076
0.06716607714860034 -0.07278991643736714 -0.00732747047740168
0.06773188878289729 -0.0730378079985041 -0.004375290535959062
0.06811801464808653 -0.07456091893113097 -0.0040139895272259364
0.06622214518669974 -0.06955141769109616 -0.008520260330707605
0.06678871562109438 -0.0722764436539765 -0.008832373340060807
0.06639898695029964 -0.07132397563541244 -0.009671318513567258
0.06961483403726343 -0.07142188811745037 0.011039573193853128
0.07010165363396657 -0.07235215619388619 0.01281854156350917
0.06848724225577918 -0.06696514906268385 0.015654015250702126
0.06964703490405505 -0.07159419039468043 0.010736930788902373
0.06969291684519088 -0.07061230488797342 0.0149630347824968
0.0690298733927749 -0.06979417550225826 0.009971637102810117
0.06947209696715641 -0.07134019794954949 0.0072693705942127665
0.06781765715504186 -0.06558236612594376 0.00662607423085787
0.06825838059997241 -0.06711520719282535 0.007200053474970863
0.06760762975993366 -0.06485171276247931 0.020340798193032
0.06460558508161578 -0.05977736876208597 0.02687777682625492
0.0673782206138164 -0.06444731603688374 0.02078929659070565
0.06553203378005265 -0.06137747678929974 0.02496521452546372
0.06856547322791207 -0.06779454037010733 0.023807637060690175
0.0678021856311506 -0.06623530943290354 0.02420375246393026
0.06824154372456603 -0.06726538472384634 0.025629017492846642
0.06942092050037378 -0.06935450263868881 0.02102486536877553
0.06384485353148356 -0.058819688343383955 0.04042546763104926
0.06342557140146311 -0.05777565954439208 0.04230637076573085
0.06307803679925875 -0.0572223660855172 0.03812446827031672
0.06165703542402792 -0.053233395918645926 0.04192692576916094
0.0608879346720071 -0.05082756594428471 0.043513430329990825
0.0520764800367857 -0.038961446620472004 0.06095128428979756
0.05589498236240673 -0.043877562269337124 0.05913013730790789
0.053033712953172496 -0.03826616688488955 0.05509567481412399
0.05300171420717861 -0.03786168050939655 0.0542803056126519
0.046918452817861625 -0.03420491654784919 0.06398163193461069
0.04827910780451741 -0.03549359051981124 0.06336646904609305
0.04840861878512308 -0.034834320018564735 0.0606531646443819
0.050739699827831074 -0.036854603916351966 0.05974968991611417
0.043476711302696903 -0.032360277657695176 0.06813702465982542
0.04363504516831226 -0.031497505313684795 0.06426208455959798
0.04415538843233648 -0.031350213370383864 0.06251244045781129
0.04077952865227424 -0.028294046432161754 0.0615795625229062
0.03093185503886605 -0.024113932950721166 0.06981923207875906
0.03166619023154553 -0.023360886595013418 0.06518906979290914
0.019185429623303888 -0.020083973932203857 0.07111175814324702
0.0197301923399784 -0.020715326758907047 0.07292059721018002
0.021310006202572895 -0.019949840188727058 0.06815023949711417
0.015077302783246965 -0.01992745951713369 0.07332559391519898
0.01282490450291838 -0.01958293145574405 0.0735978537291486
0.01588648493913638 -0.01869675149105153 0.0679221675666592
0.01812274458061288 -0.01975282628134663 0.07059335080769136
0.004776467550409103 -0.018397818370913838 0.07070303239211426
0.004988736145761955 -0.01825181225563942 0.07000064272001019
0.0018357426243840746 -0.018270717434896423 0.07024620327445033
0.004797642559981524 -0.020999594871036514 0.08322093682889756
0.0042796249294155715 -0.020663883963034792 0.08162818045037512
0.0023508540756932133 -0.02030683535769506 0.08004237136474998
0.003200032446952317 -0.01993374175367129 0.07815816486591434
0.014375541005302986 -0.02173927587037293 0.08226994292237624
0.016424050526152 -0.022354683733389787 0.08334582743530952
0.015702057523676274 -0.02095003945691127 0.07734097656599548
0.018751797382300144 -0.022307554525161682 0.08104154781952155
0.022017715872019658 -0.02292156041441428 0.07977196969517475
0.02175909651125689 -0.022676165878832033 0.07897473081199968
0.024902226757247042 -0.02336789064120456 0.07774179527442043
0.024047693749363778 -0.022772270995241276 0.0761619901470322
0.03389369133359242 -0.028020240096565084 0.07967030792212468
0.03310207492054696 -0.027144406756242186 0.07768434694044572
0.036128060758468424 -0.027846374517609632 0.07223303900986658
0.03254786694944548 -0.02598420296637265 0.07345382581500377
0.043814553602138685 -0.03385548358393933 0.07326228468568827
0.04482088691471023 -0.03452156214958626 0.07215298920896646
0.04731833351730208 -0.03684357404431783 0.07261395589256586
0.04682611887634885 -0.03632043829532094 0.07224008566289526
0.05065998821508921 -0.03957967659958683 0.06910612488223407
0.04941519136423192 -0.03908384792727111 0.07347431456692682
0.0477247682994876 -0.03570338856421806 0.06626876565307063
0.05067597405114668 -0.038373908092908984 0.06449250632900114
0.05521992649408592 -0.044949446668166 0.06804100360900366
0.055190885817736554 -0.04444099470425104 0.06545453733495118
0.05522343242113442 -0.04426443116022489 0.0643289697897858
0.055317292669491314 -0.04429572839385708 0.0639370315080025
0.0038620228486227516 -0.025561476273964878 0.09763702746492757
0.004119628102613191 -0.025638475191246665 0.09780428029320579
0.0027343570901607905 -0.026957171560622536 0.10104309393843572
0.0012143554926975992 -0.026242072983515302 0.09951235692533018
0.017478652828327376 -0.029248706357468762 0.10164665576106817
0.015947822942369478 -0.02806652893334151 0.09983107871318175
0.018055541245276963 -0.028880957862150235 0.10053401716022121
0.01972065654234979 -0.028036777070534275 0.09791754950288815
0.017917255546103482 -0.027376694856603163 0.0973361073041881
0.019474951638500135 -0.026545118745128046 0.09485841707150272
0.02640630994127146 -0.031448250590885615 0.09994526072362576
0.02127203285327918 -0.02935429073410005 0.09975561599767238
0.022704709879887285 -0.02982913262827995 0.09957493179107031
0.026061121652621668 -0.027759138191354567 0.09281053081557952
0.023761562734770664 -0.026549428367687606 0.09201377690731262
0.024992499249006112 -0.02782062103814518 0.09366959442754051
0.03871041761562244 -0.03553135644457114 0.09264090506232307
0.03686994492658981 -0.03287518608608187 0.0904134249172967
0.036077636404925784 -0.03421724512804404 0.09431704394395964
0.036939646766411816 -0.03640812412445166 0.09732534527088102
0.047577639418908725 -0.043848878322951035 0.0915991672130452
0.04916451345263585 -0.04570393184496596 0.09127425045507762
0.04797124359246912 -0.04286256662029553 0.08891976763528259
0.04551253498575979 -0.04185841299921306 0.09264796497918867
0.04486205424269421 -0.04009081710204051 0.09051605022668452
0.04703848264099848 -0.040909686194184364 0.0871584639962826
0.05385752981294477 -0.052407599965418564 0.09050265838307522
0.05421555895172017 -0.04985907012591835 0.08566479395390689
0.05316756432088461 -0.04897270698409201 0.08693854045901493
0.05481416850331797 -0.04916179838190199 0.0830788402615226
0.05207078327715109 -0.044899503317270835 0.0826639216201118
0.05155853945968733 -0.047573445580715024 0.08873787198298856
0.05215643789417385 -0.04493393806070651 0.08250829476764383
0.05585031899003315 -0.05383753379584358 0.08766227692649063
0.056047442829958515 -0.05235171279403669 0.08485655169333302
0.05573745227950061 -0.05385967689243652 0.08798966639683292
0.057397168050507916 -0.05641617862216034 0.08762444183988372
0.06036712936981672 -0.056654957951965915 0.07937684745830885
0.060428627738565374 -0.05752900265340086 0.08086862796461108
0.05808088333931954 -0.05188495766986965 0.07807828398074253
0.06014990608819951 -0.05793666872283541 0.08264277085152787
0.013269551995634052 -0.025240621829479608 -0.03545941261976533
0.014417974206645551 -0.026003827422443185 -0.03553124016075511
0.014291163166093176 -0.02510883156563269 -0.03574253480259832
0.015038821840246044 -0.02546171306512777 -0.035991035242342005
0.014955761042622997 -0.02421620335922788 -0.03757540818488524
0.015857896547686337 -0.024353066700997378 -0.03871370736638606
0.01840029507614019 -0.029484795459426085 -0.052426699547468716
0.018796632681158845 -0.02850243146730381 -0.04901791048510726
0.020445169026279443 -0.031724431050004234 -0.05604949183573594
0.021126265706433812 -0.03198540560259463 -0.05468435418768077
0.022557862187948752 -0.034215035665515516 -0.06308092396018489
0.025136945240291485 -0.035936167438993444 -0.05946495045487183
0.02861161663920993 -0.04317759976413922 -0.06953225705380742
0.02718934820891143 -0.042494752089667895 -0.07092594166802503
0.029685324572466306 -0.0421700685760018 -0.06584810486057543
0.028757254774957285 -0.05501334338733516 -0.0749717770377451
0.028786850100219762 -0.05485000674953799 -0.07490302457928699
0.029833535529191393 -0.05265121642111572 -0.07341366006908637
0.03301850470089353 -0.0500940496316318 -0.06898410283922478
0.030541458492564073 -0.049109257989972115 -0.07164231470643952
0.03420422541367096 -0.055028195780557614 -0.07030460273166934
0.03220765007359017 -0.054365073439479994 -0.07180628570182793
0.034536415412672064 -0.05645712421610087 -0.07051152962846699
0.045791298406045025 -0.06931704387678739 -0.06250658747247481
0.044947072622348 -0.06800877615026556 -0.0632921286254026
0.04669596875811847 -0.06540642935676767 -0.06032856872662377
0.04953787985652701 -0.06551456370775263 -0.05620766632436348
0.05118893390014455 -0.06637301872752673 -0.053774671661250224
0.05027598974449002 -0.06535142832972896 -0.054716214639552556
0.0514239744907958 -0.06465015241236022 -0.051959774318754606
0.05350200973438468 -0.06441269438796406 -0.04763906927297662
0.05709238873295015 -0.06354755232533213 -0.0374711750201696
0.0562523582967097 -0.06415114228175299 -0.040406692972388254
0.0530477798607955 -0.06259528968053035 -0.04681188179322432
0.05502423212080506 -0.06300920894604013 -0.04215478685706311
0.0600492322687172 -0.06431996610279214 -0.028577213016043407
0.058194411417081114 -0.06253636129285475 -0.0320919163146575
0.05717593187966499 -0.060809245698641615 -0.032649111168769604
0.05731103926985533 -0.06045287684684841 -0.03160346546592951
0.06140793280541029 -0.05891733830986809 -0.014198543687977594
0.06171544800469622 -0.057210954232684484 -0.010299917453854411
0.06177032421619479 -0.05769889864953978 -0.010927627604847955
0.05933051030434235 -0.05647304096697493 -0.017579970214838016
0.05887326838399024 -0.055851718331140214 -0.018221290165359928
0.059727032996109965 -0.05642446949695623 -0.015960746240315817
0.06083168951925864 -0.05108017294530508 0.005969312304718527
0.06297948068047539 -0.05424252014409095 0.0026561406902955624
0.06041228227848817 -0.050352669029129035 0.013668811144750135
0.059690244767365216 -0.0493479119488886 0.011040877340257261
0.06218847839244916 -0.05304775150249126 0.005807734018116594
0.060185511491528766 -0.050173001023248204 0.004112134852167439
0.05831751305946833 -0.04752965840084761 -8.035918955756312E-05
0.060860121873646554 -0.051193285556184666 0.0012479674939489696
0.06019291769158685 -0.05017906600094392 0.004423145538089731
0.055949578130133217 -0.04548457737493707 0.012398777809164253
0.057422919271338656 -0.04630126705324254 0.010692317233214848
0.056854432399560416 -0.04584159942342135 0.010945992791956974
0.05463440455912773 -0.04537324323301377 0.015827700135752618
0.05824336503823653 -0.04864018311032898 0.01510132881743329
0.052000254335290624 -0.04362154202969408 0.017761309335381052
0.05093335863627954 -0.04413268877288162 0.02115847111420542
0.04565468012726616 -0.04058227920584624 0.02242886947676322
0.04851243569371168 -0.04285222063531145 0.02373577161910763
0.043858558169829136 -0.03904462788591951 0.024272947603116792
0.04507190595243016 -0.03985019380624458 0.0248175988266218
0.040844000107596416 -0.0370324799247363 0.027767082765310383
0.04332706395603799 -0.038459165548084435 0.02789072358972702
0.03995262155761252 -0.037427468909638925 0.028597903243715188
0.0410726068972167 -0.03779171598684733 0.028644995049939434
0.040588682914747785 -0.037736090214733384 0.02959294182496501
0.040997749512939635 -0.037455337015553855 0.03159329675017411
0.039693365598563964 -0.035992552219157176 0.034503727928440885
0.04141518075660461 -0.03754392292073171 0.03306788127438051
0.041030774767509715 -0.035611896446783524 0.034970145305678095
0.04153476403240519 -0.03646979658271435 0.0346336254146159
0.04154471585237725 -0.03513002756466238 0.03507068466531245
0.043117243310974857 -0.035709133914230806 0.03510782864794924
0.04652975079523537 -0.035435305856023155 0.03822691466822063
0.045109749697262655 -0.03484892364180184 0.03768212275159744
0.049359990678497806 -0.03596542147778729 0.04002615427131069
0.04692214377700882 -0.03540032870088995 0.03863208013349897
0.052444128972299234 -0.037946724757716904 0.04105205314351252
0.048282155831480746 -0.033885640511455935 0.0417388864136953
0.05366230093383152 -0.03727502109536612 0.04594105752336669
0.05450441137661305 -0.0388801781295969 0.043675968518993434
0.056384995014333306 -0.04166153314342069 0.04942603853913412
0.0540847541364155 -0.03718525925494422 0.04847068445378273
0.05840410983042128 -0.04742766765980539 0.055106413324840516
0.05847757883443602 -0.046968042215634775 0.053490252874874196
0.05505295923909917 -0.04015538143410163 0.05261249388345266
0.05650203061580495 -0.042169590378448966 0.05073005023558161
0.061488983658330804 -0.05400015199026091 0.06064931526890227
0.059979273920055025 -0.0512194837788649 0.06014581453572067
0.06104853827913037 -0.053208899019996425 0.06064955822903921
0.05877659548127842 -0.048456506855686636 0.0562858948919171
0.06062372651195426 -0.05186246728410392 0.05690659519672863
0.06033337193352668 -0.05341230081260902 0.0704308574086704
0.061605358172922016 -0.055665820152093745 0.07031063930253584
0.06047168708000309 -0.0543789430018486 0.0745228721830714
0.060105870713133384 -0.052827816054959245 0.06942021380211448
0.06237885796061056 -0.056199814380792114 0.06497292288691978
0.06039503961096669 -0.05240809046601198 0.06338946145887464
0.060317784024128615 -0.05234048759117319 0.06390501985995702
0.06251920315744292 -0.057782554535508804 0.07220145635469222
0.06223720610546743 -0.058112584472760666 0.0746274486003945
0.062149019760163855 -0.057619225673496005 0.07381670911144585
0.06514956921984354 -0.06357908206725404 0.07292012309776588
0.0645552173537467 -0.06436303316518573 0.07810921300432452
0.06327439474277838 -0.06289659686935768 0.08041047945402295
0.06168111754073866 -0.059551104141759736 0.08015459737973506
0.06303696859291714 -0.061221611418995237 0.07796076102196156
0.004303925233638983 -0.01924266555204421 0.036583019728139377
0.0035654013718668135 -0.019381635957331007 0.03933472669164135
0.009059316520891265 -0.02391238302249397 0.03491948753542264
0.008427192172989897 -0.02287714731790934 0.03523163123322222
0.012790191610937977 -0.028413780702491728 0.037005855471876445
0.011513542370334667 -0.028296604778485807 0.03426721190118029
0.013003512717148068 -0.030626584677414928 0.03378857999044588
0.016086732294988953 -0.03219286360364116 0.03594103438526908
0.017889829036899667 -0.03536480184434432 0.03148097226467808
0.01846919820038112 -0.03445259366999224 0.033069329761464775
0.019255211014712982 -0.03651373063107633 0.03217985718282735
0.019314967173116707 -0.03643106233561761 0.032288498729998796
0.00208246485449288 -0.005062031712243554 -0.010033309301676287
0.003924949662979405 -0.008255764131188989 -0.010553833643791918
0.00931979562562981 -0.009546709850127691 -0.008164020489014493
0.012749364990334633 -0.010200499684144753 -0.006029436835997086
0.013550981856079291 -0.01119202409998677 -0.005625284522214639
0.013446895816310677 -0.010491524850396373 -0.00477778972131605
0.013708265492660835 -0.017345548532076586 0.0057496437603558395
0.015613103598026055 -0.01886561576564231 0.0020739874174665585
0.014017252916289899 -0.0202011385173801 0.010827036008281256
0.01374964595198051 -0.01888510914567764 0.008454602404949753
0.015288032868795477 -0.02426514318753291 0.015823907373563564
0.015411405319269402 -0.023302440824445964 0.013532521497380552
0.015309070722908 -0.02678180700551009 0.019491616142278265
0.016080436678097543 -0.0263101164177563 0.017280698181288755
0.015360290491937014 -0.03007440474174258 0.023219781949112624
0.014197913891658717 -0.0276350979843362 0.022203435146728383
0.015862750228287616 -0.03161521775243717 0.025146755218220254
0.01513317355695568 -0.03144952069342777 0.0262573329405038
0.017603335670396087 -0.03365440068527961 0.02767690508448698
0.01543894000680217 -0.032777414572074004 0.02808738154838429
0.020934438735609212 -0.034800707946462894 0.029419651230692873
0.020085057365294194 -0.03487153547780203 0.029220798578338023
0.02068869310263471 -0.035446523093928504 0.02982111636393444
0.021135513101521425 -0.03645520956626058 0.030022834480690052
0.06695035187796777 -0.0679373405818325 0.07124346433028428
0.06641254203256551 -0.06724473536907749 0.07397762045759051
0.06805893427929142 -0.07155848927102541 0.07316956246939861
0.06755341391984532 -0.06955281624250721 0.07106944150384602
0.06902253642624345 -0.07304818076105757 0.06912825756834069
0.06641923300230462 -0.06828794746369742 0.0775103427126022
0.06871335678996933 -0.07286855477641382 0.07145350942766959
0.06703302825647857 -0.06663800774330601 0.06214482089063599
0.06795216213922398 -0.06932385548288927 0.06388109630357726
0.0660443138933462 -0.06423388727246476 0.06531726062115087
0.0675679116294842 -0.06840397343806374 0.06526414012300355
0.06728798317078417 -0.06728972755135781 0.061656995333639164
0.06567680803381801 -0.06320425347435518 0.0650830758505954
0.06443776928400019 -0.06024760539034772 0.06706375500462314
0.06461402435865912 -0.060665338274354844 0.06676509586830767
0.06647294277758722 -0.0651671268818644 0.06056983123599151
0.06457259506870171 -0.060613361275027776 0.06537028803119567
0.06424736703101362 -0.06001552352381728 0.05804288716322914
0.06732495110444463 -0.06718848706525507 0.05900407511997459
0.06454268381977535 -0.06059055182430084 0.05381226979774714
0.06344515852848263 -0.05790960366565868 0.05342116115705592
0.06296406042424477 -0.056560305620017993 0.05002537771886392
0.06179610478672685 -0.05421841571239855 0.05567365483094522
0.06063473662025301 -0.05178620738093339 0.05614809136862797
0.06031482128594326 -0.051058426432672464 0.05484433787548343
0.06096385171092241 -0.05195119727842694 0.04962684165482609
0.06081912876419251 -0.05158454741307517 0.04948597189116668
0.05953776480685029 -0.04806697424584601 0.048029717907038305
0.05882327557657832 -0.04662418527657838 0.050436956089048496
0.05856923196345535 -0.0463255488195483 0.04191806557126489
0.0574577545994311 -0.04339648199819386 0.04306011430443568
0.05554506609127096 -0.040237618466968404 0.04334608878763401
0.05544309024101263 -0.04179876146664692 0.04025901869620506
0.053716303942403926 -0.04022791754078737 0.03975303156145771
0.0539790699403388 -0.04174685590005469 0.038236775900597146
0.05018490935853453 -0.03776596369703125 0.03855631161033489
0.05139235305940385 -0.04153478301790854 0.03579814061638177
0.04799318542871024 -0.03749726635867247 0.03711323761577738
0.04911865036922759 -0.03959107486455531 0.03599246865153333
0.04300504699500077 -0.036755441622330354 0.03432088913728632
0.04465689444218184 -0.03729612976174972 0.03460376084609329
0.04356507916140111 -0.037751828918167155 0.03390961638979504
0.0427274581184724 -0.038554634924346985 0.03366243938790792
0.07099248512645284 -0.07840664928586101 0.04709530603366689
0.07128886152583787 -0.0793670993967875 0.04930086611444716
0.07023143569775851 -0.07612658541167396 0.045219649485767975
0.07163063797167621 -0.08049906932419837 0.05234047305171069
0.06906841526959454 -0.07291651238138827 0.04793213907261122
0.0706109253129475 -0.07723259204393992 0.04552591911790224
0.06996606469467692 -0.07552924678508555 0.04858687969408202
0.07175497302094852 -0.08073500931134595 0.04986920810891364
0.07222315520333694 -0.08224829265281304 0.05327340813689921
0.07135598399968067 -0.07946490325688456 0.04736531322491821
0.0737225131928432 -0.08733790518469292 0.05020719548423505
0.07360478271721041 -0.08706121450569682 0.04854516405571237
0.07167475447714215 -0.08010580821405641 0.040493720675079975
0.07320115997967251 -0.08593404208252454 0.04426389828326517
0.07242264106654761 -0.0834174446965893 0.03872318483470484
0.07283595090786449 -0.08414712075896073 0.04647546545447874
0.07402681904519631 -0.08883051426750851 0.04833524337734779
0.0727337107739501 -0.08463205903952069 0.03927837733631167
0.06909855180184653 -0.0729069304628802 0.045971763350489865
0.0682140020374434 -0.07019009960782416 0.040703148041581504
0.06847956021508309 -0.07102361855187841 0.04272745886867998
0.06878266648095452 -0.07184307290755608 0.04177197422039583
0.0678318024025468 -0.06915204334581584 0.041789832943186944
0.07021983487905005 -0.0757868717404932 0.03868701252863733
0.06742712580605276 -0.0669835116766784 0.036518298986639004
0.06763042213735275 -0.06821110607211023 0.038442090296286056
0.06756952539954772 -0.06647440908092016 0.033497152080845465
0.0681623527762963 -0.06925692893127375 0.03656292770794892
0.06870156115874332 -0.0705281494064577 0.03533168176032866
0.06587247221499078 -0.06288821874905455 0.03383130444889994
0.06600931354434209 -0.06332250023622117 0.036797524279509934
0.06525975931252043 -0.0616266401287746 0.03417961830582325
0.06694773392872513 -0.06509527330174997 0.03308205251218634
0.06440169776344039 -0.05955195023092462 0.029733697255700547
0.06647547859123254 -0.06405506822308223 0.032099184348013426
0.06653737993416602 -0.06420259085282362 0.03237797080221472
0.06151418989434918 -0.05515544717420874 0.029258507243857344
0.06107092378348173 -0.05470762311025418 0.028342596500234407
0.06116688627331159 -0.05414018403396664 0.03420081899204961
0.06159258078282225 -0.05464167524964111 0.03538337241508891
0.055939032693629306 -0.04949648181574136 0.028338806249550364
0.05585020102417878 -0.04891677949318811 0.029969170662763438
0.05452708059241375 -0.04817388867591069 0.028531456678362523
0.052870849578602566 -0.04695466413449944 0.028532565055300302
0.052161064023291126 -0.045976000570663866 0.029865825943466547
0.05142935465740877 -0.04512449763930749 0.03168583124938949
0.04859780163605897 -0.04299231192132311 0.02949562076849484
0.049755259693145704 -0.04395401965765022 0.031698200505672916
0.045443375184625996 -0.040990337140902736 0.030639121725954184
0.046616087030665124 -0.04167124873270826 0.030722294766476445
0.044376215692125826 -0.040805157653136005 0.030778178222230657
0.04538262347799951 -0.041744277704821905 0.03160405636159382
0.01930416115536252 -0.029015099747976173 -0.03577673619141858
0.020460247826652195 -0.029074856336752185 -0.03564538446039911
0.03454325405063467 -0.03158403887018847 -0.02344517238159672
0.03379043251215722 -0.03159017756893302 -0.027509378536061502
0.04394810691334015 -0.037682595369469205 -0.021469315239564638
0.04188861950953552 -0.03632614901848523 -0.022499383987207616
0.047385643438641586 -0.03873873448633338 -0.014134218044483487
0.04692209665773206 -0.0384222751602879 -0.014439018800323904
0.04370480056994411 -0.03645518719799597 -0.017691330330430678
0.050442980407510184 -0.0410589269132173 -0.011021485483463916
0.05013788433309121 -0.04011750915667038 -0.0093114302755174
0.05038618825924021 -0.04214243466391889 -0.014706697907376514
0.04997483743626116 -0.04142701971983772 -0.013743552680816139
0.056641989008657516 -0.04605042626740592 -0.003778622340816429
0.055843100379921726 -0.04688653765743742 -0.008529069940236415
0.058429527264309306 -0.05082361378407056 -0.009910457370257862
0.05269540917890679 -0.042028620522170754 -0.006682062372211919
0.053635201653763606 -0.04535610858087026 -0.01326600791425512
0.05338818193585347 -0.043811306741205716 -0.009361142378454874
0.06215154358743995 -0.053332771950612826 0.0004692409081601019
0.06255724218876357 -0.05591059320108746 -0.003787275955824497
